0,0,0,0,0,0,0,Inf,-187.79,-188.68,13333,10000,8000,8000,8000,8000,8000,8000,8000,8000,8000,8000,8000,8000,8000,8000,8000,8000,8000,8000,8000,8000,8000,8000,8000,8000,8000,8000,8000,8000,8000,8000,8000,8000,8000,8000,8000,8000,8000,8000,8000,8000,8000,8000,8000,8000,8000,8000,8000,8000,8000,8000,8000,8000,8000,8000,8000,8000,8000,8000,8000,8000,8000,8000,8000,8000,8000,8000,8000,8000,8000,8000,8000,8000,8000,8000,8000,8000,8000,8000,8000,8000,8000,8000,8000,8000,8000,8000,8000,8000,8000,8000,8000,8000,8000,8000,8000,8000,8000,6666.7,6666.7,6666.7,6666.7,6666.7,6666.7,6666.7,6666.7,6666.7,6666.7,6666.7,6666.7,6666.7,6666.7,6666.7,6666.7,6666.7,6666.7,6666.7,6666.7,6666.7,6666.7,6666.7,6666.7,6666.7,6666.7,6666.7,6666.7,6666.7,8000,8000,8000,8000,8000,8000,8000,8000,8000,8000,8000,8000,8000,8000,8000,8000,8000,8000,8000,8000,8000,8000,8000,8000,8000,8000,8000,8000,8000,8000,8000,8000,8000,8000,8000,8000,8000,8000,8000,8000,8000,8000,8000,8000,6666.7,8000,5714.3,5714.3,5000,5000,5000,5000,5000,5000,5000,5000,5000,5000,5000,5000,5000,5000,5000,5000,5000,5000,5000,5000,5000,5000,5000,5000,5000,5000,5000,5000,5000,-1052.6,-930.23,-930.23,727.27,526.32,519.48,3076.9,3076.9,3076.9,3076.9,2857.1,2857.1,2857.1,3076.9,3076.9,2857.1,2857.1,2857.1,2857.1,2857.1,2857.1,2857.1,2857.1,2857.1,2857.1,2857.1,2857.1,2857.1,2857.1,2857.1,2857.1,2857.1,2857.1,2857.1,2857.1,2857.1,2857.1,2857.1,2857.1,2857.1,2857.1,2857.1,2857.1,2857.1,2857.1,2857.1,2857.1,2857.1,2857.1,2857.1,2857.1,2857.1,2857.1,2857.1,2857.1,190.48,192.31,5000,5000,5000,8000,8000,8000,8000,8000,8000,8000,8000,8000,8000,8000,677.97,-20000,-13333,-20000,-4444.4,-5000,-5714.3,5714.3,5714.3,5714.3,5000,5000,5000,5000,5000,5000,5000,8000,6666.7,6666.7,5714.3,5714.3,5714.3,5714.3,5714.3,5714.3,5714.3,5714.3,5714.3,5714.3,6666.7,5714.3,5714.3,5000,5000,8000,8000,8000,8000,8000,8000,8000,8000,8000,8000,8000,8000,8000,8000,8000,8000,8000,8000,8000,8000,8000,8000,8000,8000,8000,8000,8000,8000,8000,8000,8000,8000,8000,8000,8000,8000,8000,8000,8000,8000,8000,8000,8000,8000,8000,8000,8000,8000,8000,8000,8000,8000,8000,8000,8000,Inf,0,0,0,0,0,0,0
0,0,0,0,0,0,0,Inf,-187.79,-188.68,-189.57,-190.48,8000,8000,8000,8000,8000,8000,8000,8000,8000,8000,8000,8000,8000,8000,8000,8000,8000,8000,8000,8000,8000,8000,8000,8000,8000,8000,8000,8000,8000,8000,8000,8000,8000,8000,8000,8000,8000,8000,8000,8000,8000,8000,8000,8000,8000,8000,8000,8000,8000,8000,8000,8000,8000,8000,8000,8000,8000,8000,8000,8000,8000,8000,8000,8000,8000,8000,8000,8000,8000,8000,8000,8000,8000,8000,8000,8000,8000,8000,8000,8000,8000,8000,8000,8000,8000,8000,8000,8000,8000,8000,8000,8000,8000,8000,8000,8000,8000,6666.7,6666.7,6666.7,6666.7,6666.7,6666.7,6666.7,6666.7,6666.7,6666.7,6666.7,6666.7,6666.7,6666.7,6666.7,6666.7,6666.7,6666.7,6666.7,6666.7,6666.7,6666.7,6666.7,6666.7,6666.7,6666.7,6666.7,6666.7,8000,8000,8000,8000,8000,8000,8000,8000,8000,8000,8000,8000,8000,8000,8000,8000,8000,8000,8000,8000,8000,8000,8000,8000,8000,8000,8000,8000,8000,8000,8000,8000,8000,8000,8000,8000,8000,8000,8000,8000,8000,8000,8000,8000,8000,6666.7,8000,6666.7,5714.3,5000,5000,5000,5000,5000,5000,5000,5000,5000,5000,5000,5000,5000,5000,5000,5000,5000,5000,5000,5000,5000,5000,5000,5000,5000,5000,5000,5000,-930.23,-930.23,-930.23,-930.23,-930.23,-930.23,-930.23,3076.9,3076.9,3076.9,3076.9,2857.1,2857.1,2857.1,3076.9,3076.9,2857.1,2857.1,2857.1,2857.1,2857.1,2857.1,2857.1,2857.1,2857.1,2857.1,2857.1,2857.1,2857.1,2857.1,2857.1,2857.1,2857.1,2857.1,2857.1,2857.1,2857.1,2857.1,2857.1,2857.1,2857.1,2857.1,2857.1,2857.1,2857.1,2857.1,2666.7,2857.1,2857.1,2857.1,2857.1,2857.1,2857.1,2857.1,2857.1,190.48,190.48,192.31,5000,5000,5000,8000,8000,8000,8000,8000,8000,8000,8000,8000,8000,159.36,159.36,-20000,-13333,-20000,-5000,-5000,-5714.3,153.26,153.26,152.67,5000,5000,5000,5000,5000,5000,5000,8000,6666.7,5714.3,5714.3,5714.3,5714.3,5714.3,5714.3,5714.3,5714.3,5714.3,5714.3,5714.3,5714.3,5714.3,5714.3,5000,5000,8000,8000,8000,8000,8000,8000,8000,8000,8000,8000,8000,8000,8000,8000,8000,8000,8000,8000,8000,8000,8000,8000,8000,8000,8000,8000,8000,8000,8000,8000,8000,8000,8000,8000,8000,8000,8000,8000,8000,8000,8000,8000,8000,8000,8000,8000,8000,8000,8000,8000,8000,8000,8000,8000,8000,Inf,0,0,0,0,0,0,0
0,0,0,0,0,0,0,Inf,-187.79,-188.68,-189.57,-190.48,8000,8000,8000,8000,8000,8000,8000,8000,8000,8000,8000,8000,8000,8000,8000,8000,8000,8000,8000,8000,8000,8000,8000,8000,8000,8000,8000,8000,8000,8000,8000,8000,8000,8000,8000,8000,8000,8000,8000,8000,8000,8000,8000,8000,8000,8000,8000,8000,8000,8000,8000,8000,8000,8000,8000,8000,8000,8000,8000,8000,8000,8000,8000,8000,8000,8000,8000,8000,8000,8000,8000,8000,8000,8000,8000,8000,8000,8000,8000,8000,8000,10000,8000,8000,8000,8000,8000,8000,8000,8000,8000,8000,8000,8000,8000,8000,8000,6666.7,6666.7,6666.7,6666.7,6666.7,6666.7,6666.7,6666.7,6666.7,6666.7,6666.7,6666.7,6666.7,6666.7,6666.7,6666.7,6666.7,6666.7,6666.7,6666.7,6666.7,6666.7,6666.7,6666.7,6666.7,8000,8000,8000,8000,8000,8000,8000,8000,8000,8000,8000,8000,8000,8000,8000,8000,8000,8000,8000,8000,8000,8000,8000,8000,8000,8000,8000,8000,8000,8000,8000,8000,8000,8000,8000,8000,8000,8000,8000,8000,8000,8000,8000,8000,8000,8000,8000,8000,6666.7,8000,6666.7,5714.3,1739.1,5000,5000,5000,5000,5000,5000,5000,5000,5000,5000,5000,5000,5000,5000,5000,5000,5000,5000,5000,5000,5000,5000,5000,5000,5000,5000,5000,-930.23,-930.23,-930.23,-930.23,-930.23,-930.23,3076.9,3076.9,3076.9,3076.9,3076.9,2857.1,2857.1,2857.1,3076.9,3076.9,2857.1,2857.1,2857.1,2857.1,2857.1,2857.1,2857.1,2857.1,2857.1,2857.1,2857.1,2857.1,2857.1,2857.1,2857.1,2857.1,2857.1,2857.1,2857.1,2857.1,2857.1,2857.1,2857.1,2857.1,2857.1,2857.1,2857.1,2857.1,2857.1,2666.7,2666.7,2857.1,2352.9,2222.2,2105.3,2000,1212.1,1176.5,191.39,190.48,190.48,190.48,5000,5000,5000,8000,8000,8000,8000,8000,677.97,677.97,689.66,689.66,689.66,159.36,159.36,160,159.36,159.36,-5000,-5714.3,-5714.3,153.26,153.26,152.67,5000,5000,5000,5000,5000,5000,5000,8000,6666.7,5714.3,5714.3,5714.3,5714.3,5714.3,5714.3,5714.3,5714.3,5714.3,5714.3,5000,5714.3,5714.3,5714.3,5000,5000,8000,8000,8000,8000,8000,8000,8000,8000,8000,8000,8000,8000,8000,8000,8000,8000,8000,8000,8000,8000,8000,8000,8000,8000,8000,8000,8000,8000,8000,8000,8000,8000,8000,8000,8000,8000,8000,8000,8000,8000,8000,8000,8000,8000,8000,8000,8000,8000,8000,8000,8000,8000,8000,8000,8000,Inf,0,0,0,0,0,0,0
0,0,0,0,0,0,0,Inf,-188.68,-188.68,-190.48,-190.48,8000,8000,8000,8000,8000,8000,8000,8000,8000,8000,8000,8000,8000,8000,8000,8000,8000,8000,8000,8000,8000,8000,8000,8000,8000,8000,8000,8000,8000,8000,8000,8000,8000,8000,8000,8000,8000,8000,8000,8000,8000,8000,8000,8000,8000,8000,8000,8000,8000,8000,8000,8000,8000,8000,8000,8000,8000,8000,8000,8000,8000,8000,8000,8000,8000,8000,8000,8000,8000,8000,8000,8000,8000,8000,8000,8000,8000,8000,8000,8000,8000,10000,8000,8000,8000,8000,8000,8000,8000,8000,8000,8000,8000,8000,8000,8000,8000,8000,6666.7,6666.7,6666.7,6666.7,6666.7,6666.7,6666.7,6666.7,6666.7,6666.7,6666.7,6666.7,6666.7,6666.7,6666.7,6666.7,6666.7,6666.7,6666.7,6666.7,6666.7,8000,8000,8000,8000,8000,8000,8000,8000,8000,8000,8000,8000,8000,8000,8000,8000,8000,8000,8000,8000,8000,8000,8000,8000,8000,8000,8000,8000,8000,8000,8000,8000,8000,8000,8000,8000,8000,8000,8000,8000,8000,8000,8000,8000,8000,8000,8000,8000,8000,8000,8000,6666.7,8000,1739.1,1739.1,1739.1,5000,5000,5000,5000,5000,5000,5000,5000,5000,5000,5000,5000,5000,5000,5000,5000,5000,5000,5000,5000,5000,5000,5000,5000,5000,5000,5000,-930.23,-930.23,-930.23,-930.23,-930.23,-930.23,-930.23,3076.9,3076.9,3076.9,3076.9,2857.1,2857.1,2857.1,3076.9,3076.9,2857.1,2857.1,2857.1,2857.1,2857.1,2857.1,2857.1,2857.1,2857.1,2857.1,2857.1,2857.1,2857.1,2857.1,2857.1,2857.1,2857.1,2857.1,2857.1,2857.1,2857.1,2857.1,2857.1,2857.1,2857.1,2857.1,2857.1,2857.1,2857.1,2666.7,2352.9,2222.2,2222.2,2222.2,2105.3,2000,1212.1,1176.5,191.39,190.48,189.57,190.48,5000,5000,5000,8000,8000,8000,8000,701.75,701.75,689.66,701.75,701.75,701.75,701.75,701.75,160,159.36,160,-5000,-5714.3,-5714.3,153.26,153.26,152.67,5000,5000,5000,5000,5000,5000,5000,8000,6666.7,5714.3,5714.3,5000,5000,5714.3,5714.3,5000,5000,5000,5000,5000,5000,5714.3,5714.3,5000,5000,8000,8000,8000,8000,8000,8000,8000,8000,8000,8000,8000,8000,8000,8000,8000,8000,8000,8000,8000,8000,8000,8000,8000,8000,8000,8000,8000,8000,8000,8000,8000,8000,8000,8000,8000,8000,8000,8000,8000,8000,8000,8000,8000,8000,8000,8000,8000,8000,8000,8000,8000,8000,8000,8000,8000,Inf,0,0,0,0,0,0,0
0,0,0,0,0,0,0,Inf,-188.68,-189.57,-190.48,-192.31,8000,8000,8000,8000,8000,8000,8000,8000,8000,8000,8000,8000,8000,8000,8000,8000,8000,8000,8000,8000,8000,8000,8000,8000,8000,8000,8000,8000,8000,8000,8000,8000,8000,8000,8000,8000,8000,8000,8000,8000,8000,8000,8000,8000,8000,8000,8000,8000,8000,8000,8000,8000,8000,8000,8000,8000,8000,8000,8000,8000,8000,8000,8000,8000,8000,8000,8000,8000,8000,8000,8000,8000,8000,8000,8000,8000,8000,8000,8000,8000,8000,10000,8000,8000,8000,8000,8000,8000,8000,8000,8000,8000,8000,8000,8000,8000,8000,8000,6666.7,6666.7,6666.7,6666.7,6666.7,6666.7,6666.7,6666.7,6666.7,6666.7,6666.7,6666.7,6666.7,6666.7,6666.7,6666.7,6666.7,6666.7,6666.7,6666.7,6666.7,6666.7,6666.7,8000,8000,8000,8000,8000,8000,8000,8000,8000,8000,8000,8000,8000,8000,8000,8000,8000,8000,8000,8000,8000,8000,8000,8000,8000,8000,8000,8000,8000,8000,8000,8000,8000,8000,8000,8000,8000,8000,8000,8000,8000,8000,8000,8000,8000,8000,8000,8000,8000,6666.7,8000,1739.1,1739.1,1739.1,5000,5000,5000,5000,5000,5000,5000,5000,5000,5000,5000,5000,5000,5000,5000,5000,5000,5000,5000,5000,5000,5000,5000,5000,5000,5000,-930.23,-930.23,-930.23,-930.23,-930.23,-930.23,-930.23,-930.23,3076.9,3076.9,3076.9,3076.9,2857.1,2857.1,3333.3,3076.9,3076.9,2857.1,2857.1,2857.1,2857.1,2857.1,2857.1,2857.1,2857.1,2857.1,2857.1,2857.1,2857.1,2857.1,2857.1,2857.1,2857.1,2857.1,2857.1,2857.1,2857.1,2857.1,2857.1,2857.1,2857.1,2857.1,2857.1,2857.1,2857.1,2857.1,2666.7,2352.9,2222.2,2352.9,2222.2,1904.8,2000,1212.1,1176.5,190.48,190.48,189.57,188.68,8000,5000,5000,149.81,740.74,740.74,727.27,727.27,701.75,216.22,727.27,888.89,888.89,888.89,310.08,689.66,677.97,172.41,-5000,-5714.3,-5714.3,-6666.7,3076.9,3076.9,3076.9,5000,5000,5000,5000,5000,5000,8000,6666.7,5714.3,5000,5000,5000,5000,5000,5000,5000,5000,5000,5000,5000,5714.3,5000,5000,5000,8000,8000,8000,8000,8000,8000,8000,8000,8000,8000,8000,8000,8000,8000,8000,8000,8000,8000,8000,8000,8000,8000,8000,8000,8000,8000,8000,8000,8000,8000,8000,8000,8000,8000,8000,8000,8000,8000,8000,8000,8000,8000,8000,8000,8000,8000,8000,8000,8000,8000,8000,8000,8000,8000,8000,Inf,0,0,0,0,0,0,0
0,0,0,0,0,0,0,Inf,-188.68,-189.57,-190.48,-192.31,8000,8000,8000,8000,8000,8000,8000,8000,8000,8000,8000,8000,8000,8000,8000,8000,8000,8000,8000,8000,8000,8000,8000,8000,8000,8000,8000,8000,8000,8000,8000,8000,8000,8000,8000,8000,8000,8000,8000,8000,8000,8000,8000,8000,8000,8000,8000,8000,8000,8000,8000,8000,8000,8000,8000,8000,8000,8000,8000,8000,8000,8000,8000,8000,8000,8000,8000,8000,8000,8000,8000,8000,8000,8000,8000,8000,8000,8000,8000,8000,8000,10000,8000,8000,8000,8000,8000,8000,8000,8000,8000,8000,8000,8000,8000,8000,8000,8000,8000,8000,8000,8000,8000,6666.7,6666.7,6666.7,6666.7,6666.7,6666.7,6666.7,6666.7,6666.7,6666.7,6666.7,6666.7,6666.7,6666.7,6666.7,6666.7,6666.7,6666.7,8000,8000,8000,8000,8000,8000,8000,8000,8000,8000,8000,8000,8000,8000,8000,8000,8000,8000,8000,8000,8000,8000,8000,8000,8000,8000,8000,8000,8000,8000,8000,8000,8000,8000,8000,8000,8000,8000,8000,8000,8000,8000,8000,8000,8000,8000,8000,8000,8000,6666.7,1739.1,1739.1,1739.1,1739.1,5000,5000,5000,5000,5000,5000,5000,5000,5000,5000,5000,5000,5000,5000,5000,5000,5000,5000,5000,5000,5000,5000,5000,5000,5000,5000,-930.23,-930.23,-930.23,-930.23,-930.23,-930.23,-930.23,3076.9,3076.9,3076.9,3076.9,3076.9,2857.1,2857.1,3333.3,3076.9,3076.9,2857.1,2857.1,2857.1,2857.1,2857.1,2857.1,2857.1,2857.1,2857.1,2857.1,2857.1,2857.1,2857.1,2857.1,2857.1,2857.1,2857.1,2857.1,2857.1,2857.1,2857.1,2857.1,2857.1,2857.1,2857.1,2857.1,2857.1,2857.1,2857.1,2666.7,2352.9,2222.2,2352.9,2222.2,1904.8,2000,1176.5,1142.9,190.48,189.57,189.57,188.68,8000,5714.3,5000,149.81,740.74,740.74,8000,740.74,216.22,216.22,216.22,216.22,216.22,888.89,930.23,689.66,-8000,-13333,-5000,-5714.3,-6666.7,-6666.7,3333.3,3076.9,3076.9,5000,5000,5000,5000,5000,5000,5000,6666.7,5714.3,5000,5000,5000,5000,5000,5000,5000,5000,5000,5000,5000,5000,5000,5000,5000,8000,8000,8000,8000,8000,8000,8000,8000,8000,8000,8000,8000,8000,8000,8000,8000,8000,8000,8000,8000,8000,8000,8000,8000,8000,8000,8000,8000,8000,8000,8000,8000,8000,8000,8000,8000,8000,8000,8000,8000,8000,8000,8000,8000,8000,8000,8000,8000,8000,8000,8000,8000,8000,8000,8000,Inf,0,0,0,0,0,0,0
0,0,0,0,0,0,0,-250,-188.68,-190.48,-191.39,-192.31,8000,8000,8000,8000,8000,8000,8000,8000,8000,8000,8000,8000,8000,8000,8000,8000,8000,8000,8000,8000,8000,8000,8000,8000,8000,8000,8000,8000,8000,8000,8000,8000,8000,8000,8000,8000,8000,8000,8000,8000,8000,8000,8000,8000,8000,8000,8000,8000,8000,8000,8000,8000,8000,8000,8000,8000,8000,8000,8000,8000,8000,8000,8000,8000,8000,8000,8000,8000,8000,8000,8000,8000,8000,8000,8000,8000,8000,8000,8000,8000,8000,10000,8000,8000,8000,8000,8000,8000,8000,8000,8000,8000,8000,8000,8000,8000,8000,8000,8000,8000,8000,8000,8000,8000,8000,8000,6666.7,6666.7,6666.7,6666.7,6666.7,6666.7,6666.7,6666.7,6666.7,6666.7,6666.7,6666.7,6666.7,6666.7,6666.7,8000,8000,8000,8000,8000,8000,8000,8000,8000,8000,8000,8000,8000,8000,8000,8000,8000,8000,8000,8000,8000,8000,8000,8000,8000,8000,8000,8000,8000,8000,8000,8000,8000,8000,8000,8000,8000,8000,8000,8000,8000,8000,8000,8000,8000,8000,8000,8000,8000,1739.1,1739.1,1739.1,1739.1,1739.1,5000,5000,5000,5000,5000,5000,5000,5000,5000,5000,5000,5000,5000,5000,5000,5000,5000,5000,5000,5000,5000,5000,5000,5000,5000,5000,-930.23,-930.23,-930.23,-930.23,-930.23,-930.23,-930.23,3076.9,3076.9,3076.9,3076.9,3076.9,2857.1,2857.1,3333.3,3076.9,3076.9,2857.1,2857.1,2857.1,2857.1,2857.1,2857.1,2857.1,2857.1,2857.1,2857.1,2857.1,2857.1,2857.1,2857.1,2857.1,2857.1,2857.1,2857.1,2857.1,2857.1,2857.1,2857.1,2857.1,2857.1,2857.1,2857.1,2857.1,2857.1,2857.1,2666.7,2500,2222.2,1904.8,1904.8,1818.2,1212.1,1176.5,190.48,189.57,189.57,189.57,189.57,8000,5714.3,5000,149.81,740.74,740.74,8000,727.27,216.22,-40000,-40000,-40000,-40000,-40000,-40000,-8000,-8000,-13333,-13333,-5714.3,-6666.7,-8000,3333.3,3076.9,3076.9,3076.9,2857.1,5000,5000,5000,5000,5000,5714.3,5714.3,5000,5000,5000,5000,5000,5000,5000,5000,5000,5000,5000,5000,5000,5000,5000,8000,8000,8000,8000,8000,8000,8000,8000,8000,8000,8000,8000,8000,8000,8000,8000,8000,8000,8000,8000,8000,8000,8000,8000,8000,8000,8000,8000,8000,8000,8000,8000,8000,8000,8000,8000,8000,8000,8000,8000,8000,8000,8000,8000,8000,8000,8000,8000,8000,8000,8000,8000,8000,8000,8000,Inf,0,0,0,0,0,0,0
0,0,0,0,0,0,0,-250,-189.57,-190.48,-191.39,-192.31,8000,8000,8000,8000,8000,8000,8000,8000,8000,8000,8000,8000,8000,8000,8000,8000,8000,8000,8000,8000,8000,8000,8000,8000,8000,8000,8000,8000,8000,8000,8000,8000,8000,8000,8000,8000,8000,8000,8000,8000,8000,8000,8000,8000,8000,8000,8000,8000,8000,8000,8000,8000,8000,8000,8000,8000,8000,8000,8000,8000,8000,8000,8000,8000,8000,8000,8000,8000,8000,8000,8000,8000,8000,8000,8000,8000,8000,8000,8000,8000,8000,10000,8000,8000,8000,8000,8000,8000,8000,8000,8000,8000,8000,8000,8000,8000,8000,8000,8000,8000,8000,8000,8000,8000,8000,8000,8000,8000,6666.7,6666.7,6666.7,6666.7,6666.7,6666.7,6666.7,6666.7,6666.7,6666.7,6666.7,6666.7,8000,8000,8000,8000,8000,8000,8000,8000,8000,8000,8000,8000,8000,8000,8000,8000,8000,8000,8000,8000,8000,8000,8000,8000,8000,8000,8000,8000,8000,8000,8000,8000,8000,8000,8000,8000,8000,8000,8000,8000,8000,8000,8000,8000,8000,8000,8000,8000,8000,8000,1739.1,1739.1,1739.1,1739.1,1739.1,5000,5000,5000,5000,5000,5000,5000,5000,5000,5000,5000,5000,5000,5000,5000,5000,5000,5000,5000,5000,5000,5000,5000,5000,5000,-930.23,-930.23,-930.23,-930.23,-930.23,-930.23,-930.23,-930.23,3076.9,3076.9,3076.9,3076.9,3076.9,2857.1,2857.1,3333.3,3076.9,3076.9,2857.1,2857.1,2857.1,2857.1,2857.1,2857.1,2857.1,2857.1,2857.1,2857.1,2857.1,2857.1,2857.1,2857.1,2857.1,2857.1,2857.1,2857.1,2857.1,2857.1,2857.1,2857.1,2857.1,2857.1,2857.1,2857.1,2857.1,2857.1,2857.1,2666.7,2500,1904.8,1904.8,1818.2,1818.2,1176.5,1142.9,190.48,189.57,189.57,189.57,189.57,8000,740.74,5000,149.81,740.74,740.74,8000,727.27,216.22,218.58,-40000,-40000,-40000,-40000,-40000,-8000,-10000,-10000,-13333,-5714.3,-6666.7,-8000,5000,3076.9,3076.9,3076.9,2857.1,5000,5000,5000,5000,5000,5000,5000,5000,5000,5000,5000,5000,5000,5000,5000,5000,5000,5000,5000,5000,5000,5000,8000,8000,8000,8000,8000,8000,8000,8000,8000,8000,8000,8000,8000,8000,8000,8000,8000,8000,8000,8000,8000,8000,8000,8000,8000,8000,8000,8000,8000,8000,8000,8000,8000,8000,8000,8000,8000,8000,8000,8000,8000,8000,8000,8000,8000,8000,8000,8000,8000,8000,8000,8000,8000,8000,8000,Inf,0,0,0,0,0,0,0
0,0,0,0,0,0,0,Inf,-189.57,-190.48,-191.39,-192.31,-193.24,8000,8000,8000,8000,8000,8000,8000,8000,8000,8000,8000,8000,8000,8000,8000,8000,8000,8000,8000,8000,8000,8000,8000,8000,8000,8000,8000,8000,8000,8000,8000,8000,8000,8000,8000,8000,8000,8000,8000,8000,8000,8000,8000,8000,8000,8000,8000,8000,8000,8000,8000,8000,8000,8000,8000,8000,8000,8000,8000,8000,8000,8000,8000,8000,8000,8000,8000,8000,8000,8000,8000,8000,8000,8000,8000,8000,8000,8000,8000,8000,10000,8000,8000,8000,8000,8000,8000,8000,8000,8000,8000,8000,8000,8000,8000,8000,8000,8000,8000,8000,8000,8000,8000,8000,8000,8000,8000,8000,6666.7,6666.7,6666.7,6666.7,6666.7,6666.7,6666.7,6666.7,6666.7,6666.7,8000,8000,8000,8000,8000,8000,8000,8000,8000,8000,8000,8000,8000,8000,8000,8000,8000,8000,8000,8000,8000,8000,8000,8000,8000,8000,8000,8000,8000,8000,8000,8000,8000,8000,8000,8000,8000,8000,8000,8000,8000,8000,8000,8000,8000,8000,8000,8000,8000,8000,8000,1739.1,1739.1,1739.1,1739.1,1739.1,5000,5000,5000,5000,5000,5000,5000,5000,5000,5000,5000,5000,5000,5000,5000,5000,5000,5000,5000,5000,5000,5000,5000,5000,5000,-1600,-930.23,-930.23,-930.23,-930.23,-930.23,-930.23,-930.23,3076.9,3076.9,3076.9,3076.9,3076.9,2857.1,2857.1,3333.3,3076.9,3076.9,2857.1,2857.1,2857.1,2857.1,2857.1,2857.1,2857.1,2857.1,2857.1,2857.1,2857.1,2857.1,2857.1,2857.1,2857.1,2857.1,2857.1,2857.1,2857.1,2857.1,2857.1,2857.1,2857.1,2857.1,2857.1,2857.1,2857.1,2857.1,2857.1,2666.7,2500,1904.8,1904.8,1818.2,1818.2,1176.5,1142.9,190.48,189.57,189.57,189.57,8000,8000,8000,5000,149.81,8000,740.74,8000,8000,740.74,930.23,930.23,930.23,930.23,930.23,-40000,-8000,-8000,-10000,-13333,-40000,40000,20000,13333,5000,3076.9,3076.9,2857.1,5000,5000,5000,5000,5000,5000,5000,5000,5000,5000,5000,5000,5000,5000,5000,5000,5000,5000,5000,5000,5000,5000,8000,8000,8000,8000,8000,8000,8000,8000,8000,8000,8000,8000,8000,8000,8000,8000,8000,8000,8000,8000,8000,8000,8000,8000,8000,8000,8000,8000,8000,8000,8000,8000,8000,8000,8000,8000,8000,8000,8000,8000,8000,8000,8000,8000,8000,8000,8000,8000,8000,8000,8000,8000,8000,8000,8000,Inf,0,0,0,0,0,0,0
0,0,0,0,0,0,0,Inf,-189.57,-190.48,-191.39,-192.31,-193.24,8000,8000,8000,8000,8000,8000,8000,8000,8000,8000,8000,8000,8000,8000,8000,8000,8000,8000,8000,8000,8000,8000,8000,8000,8000,8000,8000,8000,8000,8000,8000,8000,8000,8000,8000,8000,8000,8000,8000,8000,8000,8000,8000,8000,8000,8000,8000,8000,8000,8000,8000,8000,8000,8000,8000,8000,8000,8000,8000,8000,8000,8000,8000,8000,8000,8000,8000,8000,8000,8000,8000,8000,8000,8000,8000,8000,8000,8000,8000,10000,10000,8000,8000,8000,8000,8000,8000,8000,8000,8000,8000,8000,8000,8000,8000,8000,8000,8000,8000,8000,8000,8000,8000,8000,8000,8000,8000,8000,8000,6666.7,6666.7,6666.7,6666.7,6666.7,6666.7,6666.7,6666.7,6666.7,8000,8000,8000,8000,8000,8000,8000,8000,8000,8000,8000,8000,8000,8000,8000,8000,8000,8000,8000,8000,8000,8000,8000,8000,8000,8000,8000,8000,8000,8000,8000,8000,8000,8000,8000,8000,8000,8000,8000,8000,8000,8000,8000,8000,8000,8000,8000,8000,8000,8000,8000,8000,8000,1739.1,1739.1,1739.1,5000,5000,5000,5000,5000,5000,5000,5000,5000,5000,5000,5000,5000,5000,5000,5000,5000,5000,5000,5000,5000,5000,5000,5000,5000,-1600,-2352.9,-930.23,-930.23,-930.23,-930.23,-930.23,-930.23,3076.9,3076.9,3076.9,3076.9,3076.9,2857.1,2857.1,3333.3,3076.9,3076.9,2857.1,2857.1,2857.1,2857.1,2857.1,2857.1,2857.1,2857.1,2857.1,2857.1,2857.1,2857.1,2857.1,2857.1,2857.1,2857.1,2857.1,2857.1,2857.1,2857.1,2857.1,2857.1,2857.1,2857.1,2857.1,2857.1,2857.1,2857.1,2857.1,2666.7,1904.8,1818.2,1904.8,1818.2,1818.2,1176.5,1142.9,190.48,189.57,189.57,8000,8000,8000,8000,5000,8000,8000,8000,8000,8000,8000,8000,975.61,930.23,8000,8000,8000,714.29,-8000,-10000,40000,40000,40000,20000,13333,170.94,312.5,3076.9,5000,5000,5000,5000,5000,5000,5000,5000,5000,5000,5000,5000,5000,5000,5000,5000,5000,5000,5000,5000,5000,5000,5000,8000,8000,8000,8000,8000,8000,8000,8000,8000,8000,8000,8000,8000,8000,8000,8000,8000,8000,8000,8000,8000,8000,8000,8000,8000,8000,8000,8000,8000,8000,8000,8000,8000,8000,8000,8000,8000,8000,8000,8000,8000,8000,8000,8000,8000,8000,8000,8000,8000,8000,8000,8000,8000,8000,8000,Inf,0,0,0,0,0,0,0
0,0,0,0,0,0,0,Inf,-189.57,-190.48,-192.31,-194.17,10000,8000,8000,8000,8000,8000,8000,8000,8000,8000,8000,8000,8000,8000,8000,8000,8000,8000,8000,8000,8000,8000,8000,8000,8000,8000,8000,8000,8000,8000,8000,8000,8000,8000,8000,8000,8000,8000,8000,8000,8000,8000,8000,8000,8000,8000,8000,8000,8000,8000,8000,8000,8000,8000,8000,8000,8000,8000,8000,8000,8000,8000,8000,8000,8000,8000,8000,8000,8000,8000,8000,8000,8000,8000,8000,8000,8000,8000,8000,8000,10000,8000,8000,8000,8000,8000,8000,8000,8000,8000,8000,8000,8000,8000,8000,8000,8000,8000,8000,8000,8000,8000,8000,8000,8000,8000,8000,8000,8000,8000,8000,6666.7,6666.7,6666.7,6666.7,6666.7,6666.7,6666.7,6666.7,8000,8000,8000,8000,8000,8000,8000,8000,8000,8000,8000,8000,8000,8000,8000,8000,8000,8000,8000,8000,8000,8000,8000,8000,8000,8000,8000,8000,8000,8000,8000,8000,8000,8000,8000,8000,8000,8000,8000,8000,8000,8000,8000,8000,8000,8000,8000,8000,8000,8000,8000,8000,8000,1739.1,1739.1,1739.1,5000,5000,5000,5000,5000,5000,5000,5000,5000,5000,5000,5000,5000,5000,5000,5000,5000,5000,5000,5000,5000,5000,5000,5000,5000,5000,3636.4,3636.4,3076.9,3076.9,3076.9,3076.9,3076.9,3076.9,3076.9,3076.9,3076.9,3076.9,2857.1,2857.1,3333.3,3076.9,3076.9,2857.1,2857.1,2857.1,2857.1,2857.1,2857.1,2857.1,2857.1,2857.1,2857.1,2857.1,2857.1,2857.1,2857.1,2857.1,2857.1,2857.1,2857.1,2857.1,2857.1,2857.1,2857.1,2857.1,2857.1,2857.1,2857.1,2857.1,2857.1,2857.1,2666.7,1904.8,1904.8,1904.8,1818.2,1818.2,1176.5,190.48,190.48,189.57,8000,8000,8000,8000,8000,8000,8000,8000,8000,8000,8000,8000,975.61,975.61,975.61,930.23,307.69,307.69,714.29,-1538.5,172.41,172.41,172.41,172.41,571.43,171.67,170.94,312.5,171.67,5000,5000,5000,5000,5000,5000,5000,5000,5000,5000,5000,5000,5000,5000,5000,5000,5000,5000,5000,5000,5000,5000,5000,8000,8000,8000,8000,8000,8000,8000,8000,8000,8000,8000,8000,8000,8000,8000,8000,8000,8000,8000,8000,8000,8000,8000,8000,8000,8000,8000,8000,8000,8000,8000,8000,8000,8000,8000,8000,8000,8000,8000,8000,8000,8000,8000,8000,8000,8000,8000,8000,8000,8000,8000,8000,8000,8000,8000,Inf,0,0,0,0,0,0,0
0,0,0,0,0,0,0,Inf,-191.39,-192.31,-193.24,-194.17,10000,8000,8000,8000,8000,8000,8000,8000,8000,8000,8000,8000,8000,8000,8000,8000,8000,8000,8000,8000,8000,8000,8000,8000,8000,8000,8000,8000,8000,8000,8000,8000,8000,8000,8000,8000,8000,8000,8000,8000,8000,8000,8000,8000,8000,8000,8000,8000,8000,8000,8000,8000,8000,8000,8000,8000,8000,8000,8000,8000,8000,8000,8000,8000,8000,8000,8000,8000,8000,8000,8000,8000,8000,8000,8000,8000,8000,8000,8000,8000,10000,8000,8000,8000,8000,8000,8000,8000,8000,8000,8000,8000,8000,8000,8000,8000,8000,8000,8000,8000,8000,8000,8000,8000,8000,8000,8000,8000,8000,8000,8000,6666.7,6666.7,6666.7,6666.7,6666.7,6666.7,6666.7,6666.7,8000,8000,8000,8000,8000,8000,8000,8000,8000,8000,8000,8000,8000,8000,8000,8000,8000,8000,8000,8000,8000,8000,8000,8000,8000,8000,8000,8000,8000,8000,8000,8000,8000,8000,8000,8000,8000,8000,8000,8000,8000,8000,8000,8000,8000,8000,8000,8000,8000,8000,8000,8000,8000,1739.1,1739.1,1739.1,5000,5000,5000,5000,5000,5000,5000,5000,5000,5000,5000,5000,5000,5000,5000,5000,5000,5000,5000,5000,5000,5000,5000,5000,5000,3076.9,2857.1,2857.1,3076.9,3076.9,3076.9,3076.9,3076.9,3076.9,3076.9,3076.9,3076.9,3076.9,2857.1,2857.1,3333.3,3076.9,3076.9,2857.1,2857.1,2857.1,2857.1,2857.1,2857.1,2857.1,2857.1,2857.1,2857.1,2857.1,2857.1,2857.1,2857.1,2857.1,2857.1,2857.1,2857.1,2857.1,2857.1,2857.1,2857.1,2857.1,2857.1,2857.1,2857.1,2857.1,2857.1,2857.1,2000,1904.8,1904.8,1904.8,1818.2,1818.2,1142.9,190.48,190.48,189.57,8000,8000,8000,8000,8000,8000,8000,8000,8000,8000,8000,188.68,190.48,975.61,952.38,930.23,930.23,307.69,714.29,325.2,325.2,325.2,140.85,571.43,571.43,571.43,170.94,170.94,3076.9,5000,5000,5000,5000,5000,5000,5000,5000,5000,5000,5000,5000,5000,5000,5000,5000,5000,5000,5000,5000,5000,5000,5000,8000,8000,8000,8000,8000,8000,8000,8000,8000,8000,8000,8000,8000,8000,8000,8000,8000,8000,8000,8000,8000,8000,8000,8000,8000,8000,8000,8000,8000,8000,8000,8000,8000,8000,8000,8000,8000,8000,8000,8000,8000,8000,8000,8000,8000,8000,8000,8000,8000,8000,8000,8000,8000,8000,8000,Inf,0,0,0,0,0,0,0
0,0,0,0,0,0,0,Inf,-191.39,-192.31,-193.24,-194.17,10000,8000,8000,8000,8000,8000,8000,8000,8000,8000,8000,8000,8000,8000,8000,8000,8000,8000,8000,8000,8000,8000,8000,8000,8000,8000,8000,8000,8000,8000,8000,8000,8000,8000,8000,8000,8000,8000,8000,8000,8000,8000,8000,8000,8000,8000,8000,8000,8000,8000,8000,8000,8000,8000,8000,8000,8000,8000,8000,8000,8000,8000,8000,8000,8000,8000,8000,8000,8000,8000,8000,8000,8000,8000,8000,8000,8000,8000,8000,8000,10000,8000,8000,8000,8000,8000,8000,8000,8000,8000,8000,8000,8000,8000,8000,8000,8000,8000,8000,8000,8000,8000,8000,8000,8000,8000,8000,8000,8000,8000,8000,6666.7,6666.7,6666.7,6666.7,6666.7,6666.7,6666.7,6666.7,8000,8000,8000,8000,8000,8000,8000,8000,8000,8000,8000,8000,8000,8000,8000,8000,8000,8000,8000,8000,8000,8000,8000,8000,8000,8000,8000,8000,8000,8000,8000,8000,8000,8000,8000,8000,8000,8000,8000,8000,8000,8000,8000,8000,8000,8000,8000,8000,8000,8000,8000,8000,8000,6666.7,1739.1,1739.1,5000,5000,5000,5000,5000,5000,5000,5000,5000,5000,5000,5000,5000,5000,5000,5000,5000,5000,5000,5000,5000,5000,5000,5000,3333.3,2857.1,2857.1,2857.1,2857.1,2857.1,3076.9,3076.9,3076.9,3076.9,3076.9,3076.9,3076.9,2857.1,2857.1,2857.1,2857.1,3076.9,3076.9,2857.1,2857.1,2857.1,2857.1,2857.1,2857.1,2857.1,2857.1,2857.1,2857.1,2857.1,2857.1,2857.1,2857.1,2857.1,2857.1,2857.1,2857.1,2857.1,2857.1,2857.1,2857.1,2857.1,2857.1,2857.1,2857.1,2857.1,2857.1,2857.1,2000,1904.8,1818.2,1818.2,1818.2,1818.2,392.16,392.16,392.16,392.16,8000,8000,8000,8000,8000,8000,149.81,149.25,-2857.1,-2857.1,188.68,188.68,190.48,188.68,188.68,930.23,930.23,727.27,714.29,325.2,172.41,172.41,140.85,571.43,571.43,171.67,170.94,170.94,3076.9,5000,5000,5000,5000,5000,5000,5000,5000,5000,5000,5000,5000,5000,5000,5000,5000,5000,5000,5000,5000,5000,5000,5000,8000,8000,8000,8000,8000,8000,8000,8000,8000,8000,8000,8000,8000,8000,8000,8000,8000,8000,8000,8000,8000,8000,8000,8000,8000,8000,8000,8000,8000,8000,8000,8000,8000,8000,8000,8000,8000,8000,8000,8000,8000,8000,8000,8000,8000,8000,8000,8000,8000,8000,8000,8000,8000,8000,8000,Inf,0,0,0,0,0,0,0
0,0,0,0,0,0,0,Inf,-191.39,-192.31,-193.24,-194.17,10000,8000,8000,8000,8000,8000,8000,8000,8000,8000,8000,8000,8000,8000,8000,8000,8000,8000,8000,8000,8000,8000,8000,8000,8000,8000,8000,8000,8000,8000,8000,8000,8000,8000,8000,8000,8000,8000,8000,8000,8000,8000,8000,8000,8000,8000,8000,8000,8000,8000,8000,8000,8000,8000,8000,8000,8000,8000,8000,8000,8000,8000,8000,8000,8000,8000,8000,8000,8000,8000,8000,8000,8000,8000,8000,8000,8000,8000,8000,8000,10000,8000,8000,8000,8000,8000,8000,8000,8000,8000,8000,8000,8000,8000,8000,8000,8000,8000,8000,8000,8000,8000,8000,8000,8000,8000,8000,8000,8000,8000,8000,6666.7,6666.7,6666.7,6666.7,6666.7,6666.7,6666.7,6666.7,8000,8000,8000,8000,8000,8000,8000,8000,8000,8000,8000,8000,8000,8000,8000,8000,8000,8000,8000,8000,8000,8000,8000,8000,8000,8000,8000,8000,8000,8000,8000,8000,8000,8000,8000,8000,8000,8000,8000,8000,8000,8000,8000,8000,8000,8000,8000,8000,8000,8000,8000,8000,8000,6666.7,1739.1,1739.1,2500,5000,5000,5000,5000,5000,5000,5000,5000,5000,5000,5000,5000,5000,5000,5000,5000,5000,5000,5000,5000,5000,5000,5000,3333.3,3076.9,2857.1,2857.1,3076.9,3076.9,3076.9,3076.9,3076.9,3076.9,3076.9,3076.9,3076.9,2857.1,2857.1,2857.1,2857.1,3076.9,2857.1,2857.1,2857.1,2857.1,2857.1,2857.1,2857.1,2857.1,2857.1,2857.1,2857.1,2857.1,2857.1,2857.1,2857.1,2857.1,2857.1,2857.1,2857.1,2857.1,2857.1,2857.1,2857.1,2857.1,2857.1,2857.1,2857.1,2857.1,2857.1,2857.1,2666.7,208.33,208.33,208.33,208.33,392.16,392.16,392.16,392.16,392.16,8000,8000,8000,8000,8000,689.66,149.81,-2857.1,-2857.1,-2857.1,187.79,187.79,930.23,930.23,909.09,888.89,727.27,714.29,714.29,172.41,172.41,172.41,140.85,172.41,172.41,171.67,170.94,5000,5000,5000,5000,5000,5000,5000,5000,5000,5000,5000,5000,5000,5000,5000,5000,5000,5000,5000,5000,5000,5000,5000,5000,5000,8000,8000,8000,8000,8000,8000,8000,8000,8000,8000,8000,8000,8000,8000,8000,8000,8000,8000,8000,8000,8000,8000,8000,8000,8000,8000,8000,8000,8000,8000,8000,8000,8000,8000,8000,8000,8000,8000,8000,8000,8000,8000,8000,8000,8000,8000,8000,8000,8000,8000,8000,8000,8000,8000,8000,Inf,0,0,0,0,0,0,0
0,0,0,0,0,0,0,Inf,-191.39,-192.31,-193.24,-194.17,10000,8000,8000,8000,8000,8000,8000,8000,8000,8000,8000,8000,8000,8000,8000,8000,8000,8000,8000,8000,8000,8000,8000,8000,8000,8000,8000,8000,8000,8000,8000,8000,8000,8000,8000,8000,8000,8000,8000,8000,8000,8000,8000,8000,8000,8000,8000,8000,8000,8000,8000,8000,8000,8000,8000,8000,8000,8000,8000,8000,8000,8000,8000,8000,8000,8000,8000,8000,8000,8000,8000,8000,8000,8000,8000,8000,8000,8000,8000,8000,10000,8000,8000,8000,8000,8000,8000,8000,8000,8000,8000,8000,8000,8000,8000,8000,8000,8000,8000,8000,8000,8000,8000,8000,8000,8000,8000,8000,8000,8000,8000,6666.7,6666.7,6666.7,6666.7,6666.7,6666.7,6666.7,6666.7,8000,8000,8000,8000,8000,8000,8000,8000,8000,8000,8000,8000,8000,8000,8000,8000,8000,8000,8000,8000,8000,8000,8000,8000,8000,8000,8000,8000,8000,8000,8000,8000,8000,8000,8000,8000,8000,8000,8000,8000,8000,8000,8000,8000,8000,8000,8000,8000,8000,8000,8000,8000,8000,1739.1,1739.1,1739.1,2500,5000,5000,5000,5000,5000,5000,5000,5000,5000,5000,5000,5000,5000,5000,5000,5000,5000,5000,5000,5000,5000,5000,5000,3333.3,3076.9,3076.9,3076.9,3076.9,3076.9,3076.9,3076.9,3076.9,3076.9,3076.9,3076.9,3076.9,2857.1,2857.1,2857.1,2857.1,3076.9,2857.1,2857.1,2857.1,2857.1,2857.1,2857.1,2857.1,2857.1,2857.1,2857.1,2857.1,2857.1,2857.1,2857.1,2857.1,2857.1,2857.1,2857.1,2857.1,2857.1,2857.1,2857.1,2857.1,2857.1,2857.1,2857.1,2857.1,2857.1,2857.1,2857.1,2857.1,2666.7,209.42,209.42,208.33,208.33,-2666.7,-2666.7,-2666.7,-2666.7,-2352.9,-2500,-2666.7,689.66,677.97,689.66,149.81,-2857.1,-2857.1,-2857.1,187.79,909.09,952.38,909.09,888.89,727.27,714.29,714.29,689.66,172.41,325.2,325.2,140.85,555.56,-975.61,171.67,-526.32,-526.32,3076.9,2857.1,5000,5000,5000,5000,5000,5000,5000,5000,5000,5000,5000,5000,5000,5000,5000,5000,5000,5000,5000,5000,5000,5000,8000,8000,8000,8000,8000,8000,8000,8000,8000,8000,8000,8000,8000,8000,8000,8000,8000,8000,8000,8000,8000,8000,8000,8000,8000,8000,8000,8000,8000,8000,8000,8000,8000,8000,8000,8000,8000,8000,8000,8000,8000,8000,8000,8000,8000,8000,8000,8000,8000,8000,8000,8000,8000,8000,8000,Inf,0,0,0,0,0,0,0
0,0,0,0,0,0,0,Inf,-191.39,-192.31,-193.24,-194.17,10000,8000,8000,8000,8000,8000,8000,8000,8000,8000,8000,8000,8000,8000,8000,8000,8000,8000,8000,8000,8000,8000,8000,8000,8000,8000,8000,8000,8000,8000,8000,8000,8000,8000,8000,8000,8000,8000,8000,8000,8000,8000,8000,8000,8000,8000,8000,8000,8000,8000,8000,8000,8000,8000,8000,8000,8000,8000,8000,8000,8000,8000,8000,8000,8000,8000,8000,8000,8000,8000,8000,8000,8000,8000,8000,8000,8000,8000,8000,8000,8000,8000,8000,8000,8000,8000,8000,8000,8000,8000,6666.7,6666.7,6666.7,8000,8000,8000,8000,8000,8000,8000,8000,8000,8000,8000,8000,8000,8000,8000,8000,8000,8000,6666.7,6666.7,6666.7,6666.7,6666.7,6666.7,6666.7,6666.7,8000,8000,8000,8000,8000,8000,8000,8000,8000,8000,8000,8000,8000,8000,8000,8000,8000,8000,8000,8000,8000,8000,8000,8000,8000,8000,8000,8000,8000,8000,8000,8000,8000,8000,8000,8000,8000,8000,8000,8000,8000,8000,8000,8000,8000,8000,8000,8000,8000,8000,8000,8000,8000,6666.7,1739.1,1739.1,2500,5000,5000,5000,5000,5000,5000,5000,5000,5000,5000,5000,5000,5000,5000,5000,5000,5000,5000,5000,5000,5000,5000,3076.9,3076.9,3076.9,3076.9,3076.9,3076.9,3076.9,3076.9,3076.9,3076.9,3076.9,3076.9,3076.9,3076.9,2857.1,2857.1,2857.1,2857.1,3076.9,2857.1,2857.1,2857.1,2857.1,2857.1,2857.1,2857.1,2857.1,2857.1,2857.1,2857.1,2857.1,2857.1,2857.1,2857.1,2857.1,2857.1,2857.1,2857.1,2857.1,2857.1,2857.1,2857.1,2857.1,2857.1,2857.1,2857.1,2857.1,2857.1,2857.1,2857.1,2857.1,2857.1,2857.1,2857.1,2857.1,2857.1,2857.1,2857.1,-2666.7,-2857.1,-2857.1,-2857.1,3636.4,3636.4,3333.3,-2857.1,-2857.1,-2857.1,-2857.1,888.89,888.89,930.23,909.09,888.89,714.29,714.29,701.75,-1142.9,-1142.9,325.2,325.2,140.85,540.54,-975.61,-975.61,5000,5000,3076.9,2857.1,3076.9,5000,5000,5000,5000,5000,5000,5000,5000,5000,5000,5000,5000,5000,5000,5000,5000,5000,5000,5000,5000,5000,8000,8000,8000,8000,8000,8000,8000,8000,8000,8000,8000,8000,8000,8000,8000,8000,8000,8000,8000,8000,8000,8000,8000,8000,8000,8000,8000,8000,8000,8000,8000,8000,8000,8000,8000,8000,8000,8000,8000,8000,8000,8000,8000,8000,8000,8000,8000,8000,8000,8000,8000,8000,8000,8000,8000,Inf,0,0,0,0,0,0,0
0,0,0,0,0,0,0,Inf,-191.39,40000,20000,13333,10000,8000,8000,8000,8000,8000,8000,8000,8000,8000,8000,8000,8000,8000,8000,8000,8000,8000,8000,8000,8000,8000,8000,8000,8000,8000,8000,8000,8000,8000,8000,8000,8000,8000,8000,8000,8000,8000,8000,8000,8000,8000,8000,8000,8000,8000,8000,8000,8000,8000,8000,8000,8000,8000,8000,8000,8000,8000,8000,8000,8000,8000,8000,8000,8000,8000,8000,8000,8000,8000,8000,8000,8000,8000,8000,8000,8000,8000,8000,8000,8000,8000,8000,8000,8000,8000,8000,8000,8000,8000,8000,8000,8000,8000,8000,8000,8000,8000,8000,8000,8000,8000,8000,8000,8000,8000,8000,8000,8000,8000,8000,6666.7,6666.7,6666.7,6666.7,6666.7,6666.7,6666.7,6666.7,8000,8000,8000,8000,8000,8000,8000,8000,8000,8000,8000,8000,8000,8000,8000,8000,8000,8000,8000,8000,8000,8000,8000,8000,8000,8000,8000,8000,8000,8000,8000,8000,8000,8000,8000,8000,8000,8000,8000,8000,8000,8000,8000,8000,8000,8000,8000,8000,8000,8000,8000,8000,8000,6666.7,1739.1,1739.1,2500,5000,5000,5000,5000,5000,5000,5000,5000,5000,5000,5000,5000,5000,5000,5000,5000,5000,5000,5000,5000,5000,5000,3076.9,3076.9,3076.9,3076.9,3076.9,3076.9,3076.9,3076.9,3076.9,3076.9,3076.9,3076.9,3076.9,3076.9,2857.1,2857.1,2857.1,2857.1,3076.9,2857.1,2857.1,2857.1,2857.1,2857.1,2857.1,2857.1,2857.1,2857.1,2857.1,2857.1,2857.1,2857.1,2857.1,2857.1,2857.1,2857.1,2857.1,2857.1,2857.1,2857.1,2857.1,2857.1,2857.1,2857.1,2857.1,2857.1,2857.1,2857.1,2857.1,2857.1,2857.1,2857.1,2857.1,2857.1,2857.1,2857.1,2857.1,2857.1,2857.1,2857.1,3636.4,3636.4,3636.4,3333.3,3333.3,3076.9,2857.1,-2857.1,-2857.1,-2857.1,888.89,930.23,909.09,888.89,714.29,701.75,-689.66,-1111.1,-1142.9,-1142.9,-1111.1,-1111.1,526.32,533.33,5000,5000,3076.9,3076.9,3076.9,3076.9,5000,5000,5000,5000,5000,5000,5000,5000,5000,5000,5000,5000,5000,5000,5000,5000,5000,5000,5000,5000,5000,8000,8000,8000,8000,8000,8000,8000,8000,8000,8000,8000,8000,8000,8000,8000,8000,8000,8000,8000,8000,8000,8000,8000,8000,8000,8000,8000,8000,8000,8000,8000,8000,8000,8000,8000,8000,8000,8000,8000,8000,8000,8000,8000,8000,8000,8000,8000,8000,8000,8000,8000,8000,8000,8000,8000,Inf,0,0,0,0,0,0,0
0,0,0,0,0,0,0,Inf,Inf,40000,20000,13333,10000,8000,8000,8000,8000,8000,8000,8000,8000,8000,8000,8000,8000,8000,8000,8000,8000,8000,8000,8000,8000,8000,8000,8000,8000,8000,8000,8000,8000,8000,8000,8000,8000,8000,8000,8000,8000,8000,8000,8000,8000,8000,8000,8000,8000,8000,8000,8000,8000,8000,8000,8000,8000,8000,8000,8000,8000,8000,8000,8000,8000,8000,8000,8000,8000,8000,8000,8000,8000,8000,8000,8000,8000,8000,8000,8000,8000,8000,8000,8000,8000,8000,8000,8000,8000,8000,8000,8000,8000,8000,8000,8000,8000,8000,8000,8000,8000,8000,8000,8000,8000,8000,8000,8000,8000,8000,8000,8000,8000,8000,8000,6666.7,6666.7,6666.7,6666.7,6666.7,6666.7,6666.7,6666.7,8000,6666.7,8000,8000,8000,8000,8000,8000,8000,8000,8000,8000,8000,8000,8000,8000,8000,8000,8000,8000,8000,8000,8000,8000,8000,8000,8000,8000,8000,8000,8000,8000,8000,8000,8000,8000,8000,8000,8000,8000,8000,8000,8000,8000,8000,8000,8000,8000,8000,8000,8000,8000,8000,6666.7,1739.1,1739.1,2500,5000,5000,5000,5000,5000,5000,5000,5000,5000,5000,5000,5000,5000,5000,5000,5000,5000,5000,5000,5000,5000,3076.9,3076.9,3076.9,3076.9,3076.9,3076.9,3076.9,3076.9,3076.9,3076.9,3076.9,3076.9,3076.9,3076.9,3076.9,2857.1,2857.1,2857.1,2857.1,2857.1,2857.1,2857.1,2857.1,2857.1,2857.1,2857.1,2857.1,2857.1,2857.1,2857.1,2857.1,2857.1,2857.1,2857.1,2857.1,2857.1,2857.1,2857.1,2857.1,2857.1,2857.1,2857.1,2857.1,2857.1,2857.1,2857.1,2857.1,2857.1,2857.1,2857.1,2857.1,2857.1,2857.1,2857.1,2857.1,2857.1,2857.1,2857.1,2857.1,2857.1,2857.1,2857.1,3333.3,3636.4,3333.3,3333.3,3076.9,2857.1,2857.1,-2857.1,-2857.1,727.27,727.27,714.29,714.29,-1111.1,-1111.1,-1111.1,-1111.1,3076.9,3076.9,3076.9,5000,5000,5000,2857.1,5000,3076.9,3076.9,2857.1,2857.1,2857.1,5000,5000,5000,5000,5000,5000,5000,5000,5000,5000,5000,5000,5000,5000,5000,5000,5000,5000,5000,5000,8000,8000,8000,8000,8000,8000,8000,8000,8000,8000,8000,8000,8000,8000,8000,8000,8000,8000,8000,8000,8000,8000,8000,8000,8000,8000,8000,8000,8000,8000,8000,8000,8000,8000,8000,8000,8000,8000,8000,8000,8000,8000,8000,8000,8000,8000,8000,8000,8000,8000,8000,8000,8000,8000,8000,Inf,0,0,0,0,0,0,0
0,0,0,0,0,0,0,Inf,Inf,40000,20000,13333,10000,8000,8000,8000,8000,8000,8000,8000,8000,8000,8000,8000,8000,8000,8000,8000,8000,8000,8000,8000,8000,8000,8000,8000,8000,8000,8000,8000,8000,8000,8000,8000,8000,8000,8000,8000,8000,8000,8000,8000,8000,8000,8000,8000,8000,8000,8000,8000,8000,8000,8000,8000,8000,8000,8000,8000,8000,8000,8000,8000,8000,8000,8000,8000,8000,8000,8000,8000,8000,8000,8000,8000,8000,8000,8000,8000,8000,8000,8000,8000,8000,8000,8000,8000,8000,8000,8000,8000,8000,8000,8000,8000,8000,8000,8000,8000,8000,8000,8000,8000,8000,8000,8000,8000,8000,8000,8000,8000,8000,8000,8000,6666.7,6666.7,6666.7,6666.7,6666.7,6666.7,6666.7,6666.7,6666.7,6666.7,6666.7,8000,8000,8000,8000,8000,8000,8000,8000,8000,8000,8000,8000,8000,8000,8000,8000,8000,8000,8000,8000,8000,8000,8000,8000,8000,8000,8000,8000,8000,8000,8000,8000,8000,8000,8000,8000,8000,8000,8000,8000,8000,8000,8000,8000,8000,8000,8000,8000,8000,8000,6666.7,1739.1,1739.1,5000,5000,5000,5000,5000,5000,5000,5000,5000,5000,5000,5000,5000,5000,5000,5000,5000,5000,5000,5000,5000,5000,3076.9,3076.9,3076.9,3076.9,3076.9,3076.9,3076.9,3076.9,3076.9,3076.9,3076.9,3076.9,3076.9,2857.1,3076.9,2857.1,2857.1,2857.1,2857.1,2857.1,2857.1,2857.1,2857.1,2857.1,2857.1,2857.1,2857.1,2857.1,2857.1,2857.1,2857.1,2857.1,2857.1,2857.1,2857.1,2857.1,2857.1,2857.1,2857.1,2857.1,2857.1,2857.1,2857.1,2857.1,2857.1,2857.1,2857.1,2857.1,2857.1,2857.1,2857.1,2857.1,2857.1,2857.1,2857.1,2857.1,2857.1,2857.1,2857.1,2857.1,2857.1,2857.1,2857.1,3333.3,3333.3,3076.9,3076.9,2857.1,2857.1,2666.7,3076.9,2857.1,714.29,714.29,310.08,5000,5000,4444.4,3076.9,3076.9,3076.9,3076.9,3076.9,3076.9,2857.1,2857.1,5000,3076.9,3076.9,2857.1,2857.1,2857.1,5000,5000,5000,5000,5000,5000,5000,5000,5000,5000,5000,5000,5000,5000,5000,5000,5000,5000,5000,5000,8000,8000,8000,8000,8000,8000,8000,8000,8000,8000,8000,8000,8000,8000,8000,8000,8000,8000,8000,8000,8000,8000,8000,8000,8000,8000,8000,8000,8000,8000,8000,8000,8000,8000,8000,8000,8000,8000,8000,8000,8000,8000,8000,8000,8000,8000,8000,8000,8000,8000,8000,8000,8000,8000,8000,Inf,0,0,0,0,0,0,0
0,0,0,0,0,0,0,Inf,Inf,40000,20000,13333,10000,8000,8000,8000,8000,8000,8000,8000,8000,8000,8000,8000,8000,8000,8000,8000,8000,8000,8000,8000,8000,8000,8000,8000,8000,8000,8000,8000,8000,8000,8000,8000,8000,8000,8000,8000,8000,8000,8000,8000,8000,8000,8000,8000,8000,8000,8000,8000,8000,8000,8000,8000,8000,8000,8000,8000,8000,8000,8000,8000,8000,8000,8000,8000,8000,8000,8000,8000,8000,8000,8000,8000,8000,8000,8000,8000,8000,8000,8000,8000,8000,8000,8000,8000,8000,8000,8000,8000,8000,8000,8000,8000,8000,8000,8000,8000,8000,8000,8000,8000,8000,8000,8000,8000,8000,8000,8000,8000,8000,8000,8000,6666.7,6666.7,6666.7,6666.7,6666.7,6666.7,6666.7,6666.7,6666.7,6666.7,6666.7,8000,8000,8000,8000,8000,8000,8000,8000,8000,8000,8000,8000,8000,8000,8000,8000,8000,8000,8000,8000,8000,8000,8000,8000,8000,8000,8000,8000,8000,8000,8000,8000,8000,8000,8000,8000,8000,8000,8000,8000,8000,8000,8000,8000,8000,8000,8000,8000,8000,8000,6666.7,-298.51,2500,5000,5000,5000,5000,5000,5000,5000,5000,5000,5000,5000,5000,5000,5000,5000,5000,5000,5000,5000,5000,5000,3076.9,3076.9,3076.9,3076.9,3076.9,3076.9,3076.9,3076.9,3076.9,3076.9,3076.9,3076.9,3076.9,3076.9,2857.1,2857.1,2857.1,2857.1,2857.1,2857.1,2857.1,2857.1,2857.1,2857.1,2857.1,2857.1,2857.1,2857.1,2857.1,2857.1,2857.1,2857.1,2857.1,2857.1,2857.1,2857.1,2857.1,2857.1,2857.1,2857.1,2857.1,2857.1,2857.1,2857.1,2857.1,2857.1,2857.1,2857.1,2857.1,2857.1,2857.1,2857.1,2857.1,2857.1,2857.1,2857.1,2857.1,2857.1,2857.1,2857.1,2857.1,2857.1,2857.1,2857.1,2857.1,3333.3,3076.9,2857.1,2857.1,2857.1,2857.1,3076.9,2857.1,2857.1,310.08,310.08,3076.9,3076.9,3076.9,3076.9,3076.9,3076.9,3076.9,3076.9,3076.9,2857.1,2857.1,2857.1,2857.1,3076.9,2857.1,2857.1,2857.1,2666.7,5000,5000,5000,5000,5000,5000,5000,5000,5000,5000,5000,5000,5000,5000,5000,5000,5000,5000,5000,8000,8000,8000,8000,8000,8000,8000,8000,8000,8000,8000,8000,8000,8000,8000,8000,8000,8000,8000,8000,8000,8000,8000,8000,8000,8000,8000,8000,8000,8000,8000,8000,8000,8000,8000,8000,8000,8000,8000,8000,8000,8000,8000,8000,8000,8000,8000,8000,8000,8000,8000,8000,8000,8000,8000,Inf,0,0,0,0,0,0,0
0,0,0,0,0,0,0,Inf,Inf,40000,20000,13333,10000,8000,8000,8000,8000,8000,8000,8000,8000,8000,8000,8000,8000,8000,8000,8000,8000,8000,8000,8000,8000,8000,8000,8000,8000,8000,8000,8000,8000,8000,8000,8000,8000,8000,8000,8000,8000,8000,8000,8000,8000,8000,8000,8000,8000,8000,8000,8000,8000,8000,8000,8000,8000,8000,8000,8000,8000,8000,8000,8000,8000,8000,8000,8000,8000,8000,8000,8000,8000,8000,8000,8000,8000,8000,8000,8000,8000,8000,8000,8000,8000,8000,8000,8000,8000,8000,8000,8000,8000,8000,8000,8000,8000,8000,8000,8000,8000,8000,8000,8000,8000,8000,8000,8000,8000,8000,8000,8000,8000,8000,8000,6666.7,6666.7,6666.7,6666.7,6666.7,6666.7,6666.7,6666.7,6666.7,6666.7,6666.7,6666.7,6666.7,6666.7,8000,8000,8000,8000,8000,8000,8000,8000,8000,8000,8000,8000,8000,8000,8000,8000,8000,8000,8000,8000,8000,8000,8000,8000,8000,4444.4,4000,4000,4000,8000,8000,8000,4000,4000,4000,4000,4000,8000,8000,8000,8000,8000,8000,8000,8000,8000,8000,6666.7,-298.51,-213.9,5000,5000,5000,5000,5000,5000,5000,5000,5000,5000,5000,5000,5000,5000,5000,5000,5000,5000,5000,5000,5000,3076.9,3076.9,3076.9,3076.9,3076.9,3076.9,3076.9,3076.9,3076.9,3076.9,3076.9,3076.9,3076.9,3076.9,2857.1,2857.1,2857.1,2857.1,2857.1,2857.1,2857.1,2857.1,2857.1,2857.1,2857.1,2857.1,2857.1,2857.1,2857.1,2857.1,2857.1,2857.1,2857.1,2857.1,2857.1,2857.1,2857.1,2857.1,2857.1,2857.1,2857.1,2857.1,2857.1,2857.1,2857.1,2857.1,2857.1,2857.1,2857.1,2857.1,2857.1,2857.1,2857.1,2857.1,2857.1,2857.1,2857.1,2857.1,2857.1,2857.1,2857.1,2857.1,2857.1,2857.1,2857.1,2857.1,3076.9,2857.1,2857.1,2857.1,2857.1,3076.9,2857.1,2857.1,2857.1,3076.9,3076.9,3076.9,3076.9,3076.9,3076.9,3076.9,3076.9,3076.9,3076.9,2857.1,2857.1,2857.1,2857.1,3076.9,2857.1,2857.1,2857.1,2666.7,5000,5000,5000,5000,5000,5000,5000,5000,5000,5000,5000,5000,5000,5000,5000,5000,5000,5000,5000,8000,8000,8000,8000,8000,8000,8000,8000,8000,8000,8000,8000,8000,8000,8000,8000,8000,8000,8000,8000,8000,8000,8000,8000,8000,8000,8000,8000,8000,8000,8000,8000,8000,8000,8000,8000,8000,8000,8000,8000,8000,8000,8000,8000,8000,8000,8000,8000,8000,8000,8000,8000,8000,8000,8000,Inf,0,0,0,0,0,0,0
0,0,0,0,0,0,0,Inf,Inf,40000,20000,13333,10000,8000,8000,8000,8000,8000,8000,8000,8000,8000,8000,8000,8000,8000,8000,8000,8000,8000,8000,8000,8000,8000,8000,8000,8000,8000,8000,8000,8000,8000,8000,8000,8000,8000,8000,8000,8000,8000,8000,8000,8000,8000,8000,8000,8000,8000,8000,8000,8000,8000,8000,8000,8000,8000,8000,8000,8000,8000,8000,8000,8000,8000,8000,8000,8000,8000,8000,8000,8000,8000,8000,8000,8000,8000,8000,8000,8000,8000,8000,8000,8000,8000,8000,8000,8000,8000,8000,8000,8000,8000,8000,8000,8000,8000,8000,8000,8000,8000,8000,8000,8000,8000,8000,8000,8000,8000,8000,8000,8000,8000,8000,6666.7,6666.7,6666.7,6666.7,6666.7,6666.7,6666.7,6666.7,6666.7,6666.7,6666.7,6666.7,6666.7,6666.7,6666.7,8000,8000,8000,8000,8000,8000,8000,8000,8000,8000,8000,8000,8000,8000,8000,8000,8000,8000,8000,8000,8000,8000,8000,8000,4444.4,4000,4000,4000,4000,4000,4000,4000,4000,4000,4000,4000,4000,4000,4000,4444.4,4444.4,4000,4000,8000,8000,8000,6666.7,-298.51,-213.9,5000,5000,5000,5000,5000,5000,5000,5000,5000,5000,5000,5000,5000,5000,5000,5000,5000,5000,5000,5000,5000,3076.9,3076.9,3076.9,3076.9,3076.9,3076.9,3076.9,3076.9,3076.9,3076.9,3076.9,3076.9,3076.9,3076.9,2857.1,2857.1,2857.1,2857.1,2857.1,2857.1,2857.1,2857.1,2857.1,2857.1,2857.1,2857.1,2857.1,2857.1,2857.1,2857.1,2857.1,2857.1,2857.1,2857.1,2857.1,2857.1,2857.1,2857.1,2857.1,2857.1,2857.1,2857.1,2857.1,2857.1,2857.1,2857.1,2857.1,2857.1,2857.1,2857.1,2857.1,2857.1,2857.1,2857.1,2857.1,2857.1,2857.1,2857.1,2857.1,2857.1,2857.1,2857.1,2857.1,2857.1,2857.1,2857.1,2857.1,2857.1,2857.1,2857.1,2857.1,2857.1,2857.1,2857.1,2857.1,3076.9,3076.9,3076.9,3076.9,3076.9,3076.9,3076.9,3076.9,3076.9,2857.1,2857.1,2857.1,2857.1,2857.1,3076.9,2857.1,2857.1,2857.1,2666.7,2500,2857.1,5000,5000,5000,5000,5000,5000,5000,5000,5000,5000,5000,5000,5000,5000,5000,5000,5000,8000,8000,8000,8000,8000,8000,8000,8000,8000,8000,8000,8000,8000,8000,8000,8000,8000,8000,8000,8000,8000,8000,8000,8000,8000,8000,8000,8000,8000,8000,8000,8000,8000,8000,8000,8000,8000,8000,8000,8000,8000,8000,8000,8000,8000,8000,8000,8000,8000,8000,8000,8000,8000,8000,8000,Inf,0,0,0,0,0,0,0
0,0,0,0,0,0,0,Inf,Inf,40000,20000,13333,10000,8000,8000,8000,8000,8000,8000,8000,8000,8000,8000,8000,8000,8000,8000,8000,8000,8000,8000,8000,8000,8000,8000,8000,8000,8000,8000,8000,8000,8000,8000,8000,8000,8000,8000,8000,8000,8000,8000,8000,8000,8000,8000,8000,8000,8000,8000,8000,8000,8000,8000,8000,8000,8000,8000,8000,8000,8000,8000,8000,8000,8000,8000,8000,8000,8000,8000,8000,8000,8000,8000,8000,8000,8000,8000,8000,8000,8000,8000,8000,8000,8000,8000,8000,8000,8000,8000,8000,8000,8000,8000,8000,8000,8000,8000,8000,8000,8000,8000,8000,8000,8000,8000,8000,8000,8000,8000,8000,8000,8000,8000,6666.7,6666.7,6666.7,6666.7,6666.7,6666.7,5714.3,5714.3,5714.3,6666.7,5714.3,6666.7,6666.7,6666.7,6666.7,6666.7,8000,8000,8000,8000,8000,8000,8000,8000,8000,8000,8000,8000,8000,8000,8000,8000,8000,8000,8000,8000,8000,8000,4444.4,4444.4,4000,4000,4000,4000,4000,4000,4000,4000,4000,4000,4000,4000,4000,4000,4444.4,4000,4000,4000,4000,4000,3636.4,-909.09,-298.51,-298.51,5000,5000,5000,5000,5000,5000,5000,5000,5000,5000,5000,5000,5000,5000,5000,5000,5000,5000,5000,5000,5000,3076.9,3076.9,3076.9,3076.9,3076.9,3076.9,3076.9,3076.9,3076.9,3076.9,3076.9,3076.9,3076.9,3076.9,2857.1,2857.1,2857.1,2857.1,2857.1,2857.1,2857.1,2857.1,2857.1,2857.1,2857.1,2857.1,2857.1,2857.1,2857.1,2857.1,2857.1,2857.1,2857.1,2857.1,2857.1,2857.1,2857.1,2857.1,2857.1,2857.1,2857.1,2857.1,2857.1,2857.1,2857.1,2857.1,2857.1,2857.1,2857.1,2857.1,2857.1,2857.1,2857.1,2857.1,2857.1,2857.1,2857.1,2857.1,2857.1,2857.1,2857.1,2857.1,2857.1,2857.1,2857.1,2857.1,2857.1,2857.1,2857.1,2857.1,2857.1,2857.1,2857.1,2857.1,2857.1,3076.9,3076.9,3076.9,3076.9,3076.9,3076.9,3076.9,3076.9,3076.9,3076.9,2857.1,2857.1,2857.1,3076.9,3076.9,2857.1,2857.1,2857.1,2666.7,2500,2857.1,2857.1,2857.1,5000,5000,5000,5000,5000,5000,5000,5000,5000,5000,5000,5000,5000,5000,5000,8000,8000,8000,8000,8000,8000,8000,8000,8000,8000,8000,8000,8000,8000,8000,8000,8000,8000,8000,8000,8000,8000,8000,8000,8000,8000,8000,8000,8000,8000,8000,8000,8000,8000,8000,8000,8000,8000,8000,8000,8000,8000,8000,8000,8000,8000,8000,8000,8000,8000,8000,8000,8000,8000,8000,Inf,0,0,0,0,0,0,0
0,0,0,0,0,0,0,Inf,Inf,40000,20000,13333,10000,8000,8000,8000,8000,8000,8000,8000,8000,8000,8000,8000,8000,8000,8000,8000,8000,8000,8000,8000,8000,8000,8000,8000,8000,8000,8000,8000,8000,8000,8000,8000,8000,8000,8000,8000,8000,8000,8000,8000,8000,8000,8000,8000,8000,8000,8000,8000,8000,8000,8000,8000,8000,8000,8000,8000,8000,8000,8000,8000,8000,8000,8000,8000,8000,8000,8000,8000,8000,8000,8000,8000,8000,8000,8000,8000,8000,8000,8000,8000,8000,8000,8000,8000,8000,8000,8000,8000,8000,8000,8000,8000,8000,8000,8000,8000,8000,8000,8000,8000,8000,8000,8000,8000,8000,8000,8000,8000,8000,8000,8000,6666.7,6666.7,6666.7,6666.7,5714.3,5714.3,5000,4444.4,4000,4000,4000,4000,4000,3636.4,3636.4,3333.3,3636.4,3636.4,3636.4,3636.4,8000,8000,8000,8000,8000,8000,8000,8000,8000,8000,8000,8000,8000,8000,8000,8000,8000,8000,4444.4,4000,4000,4000,4000,4000,4000,4000,4000,4000,4000,4000,4000,4000,4000,4000,4444.4,4000,4000,4000,4000,4000,3636.4,3636.4,-909.09,606.06,5000,5000,5000,5000,5000,5000,5000,5000,5000,5000,5000,5000,5000,5000,5000,5000,5000,5000,5000,5000,5000,3076.9,3076.9,3076.9,3076.9,3076.9,3076.9,3076.9,3076.9,3076.9,3076.9,3076.9,3076.9,3076.9,3076.9,2857.1,2857.1,2857.1,2857.1,2857.1,2857.1,2857.1,2857.1,2857.1,2857.1,2857.1,2857.1,2857.1,2857.1,2857.1,2857.1,2857.1,2857.1,2857.1,2857.1,2857.1,2857.1,2857.1,2857.1,2857.1,2857.1,2857.1,2857.1,2857.1,2857.1,2857.1,2857.1,2857.1,2857.1,2857.1,2857.1,2857.1,2857.1,2857.1,2857.1,2857.1,2857.1,2857.1,2857.1,2857.1,2857.1,2857.1,2857.1,2857.1,2857.1,2857.1,2857.1,2857.1,2857.1,2857.1,2857.1,2857.1,2857.1,2857.1,2857.1,2857.1,2857.1,3076.9,3076.9,3076.9,3076.9,3076.9,3076.9,3076.9,3076.9,3076.9,2857.1,2857.1,3076.9,3076.9,3076.9,2857.1,2857.1,2857.1,2666.7,2500,5000,5000,5000,5000,5000,5000,5000,5000,5000,5000,5000,5000,5000,5000,5000,5000,5000,5000,8000,8000,8000,8000,8000,8000,8000,8000,8000,8000,8000,8000,8000,8000,8000,8000,8000,8000,8000,8000,8000,8000,8000,8000,8000,8000,8000,8000,8000,8000,8000,8000,8000,8000,8000,8000,8000,8000,8000,8000,8000,8000,8000,8000,8000,8000,8000,8000,8000,8000,8000,8000,8000,8000,8000,Inf,0,0,0,0,0,0,0
0,0,0,0,0,0,0,Inf,Inf,40000,20000,13333,10000,8000,8000,8000,8000,8000,8000,8000,8000,8000,8000,8000,8000,8000,8000,8000,8000,8000,8000,8000,8000,8000,8000,8000,8000,8000,8000,8000,8000,8000,8000,8000,8000,8000,8000,8000,8000,8000,8000,8000,8000,8000,8000,8000,8000,8000,8000,8000,8000,8000,8000,8000,8000,8000,8000,8000,8000,8000,8000,8000,8000,8000,8000,8000,8000,8000,8000,8000,8000,8000,8000,8000,8000,8000,8000,8000,8000,8000,8000,8000,8000,8000,8000,8000,8000,8000,8000,8000,8000,8000,8000,8000,8000,8000,8000,8000,8000,8000,8000,8000,8000,8000,8000,8000,8000,8000,8000,8000,8000,8000,8000,6666.7,6666.7,6666.7,5714.3,5714.3,5000,4444.4,4000,4000,4000,4000,4000,4000,4000,3636.4,3636.4,3636.4,3636.4,3636.4,3636.4,3636.4,8000,8000,8000,8000,8000,8000,8000,8000,8000,8000,8000,8000,8000,8000,8000,8000,5000,4444.4,4000,4000,4000,4000,4000,4000,4000,4000,4000,4000,4000,4000,4000,4000,4000,4000,4000,4000,4000,4000,4000,4000,3636.4,3636.4,5000,5000,5000,5000,5000,5000,5000,5000,5000,5000,5000,5000,5000,5000,5000,5000,5000,5000,5000,5000,5000,5000,3076.9,3076.9,3076.9,3076.9,3076.9,3076.9,3076.9,3076.9,3076.9,3076.9,3076.9,3076.9,3076.9,3076.9,2857.1,2857.1,2857.1,2857.1,2857.1,2857.1,2857.1,2857.1,2857.1,2857.1,2857.1,2857.1,2857.1,2857.1,2857.1,2857.1,2857.1,2857.1,2857.1,2857.1,2857.1,2857.1,2857.1,2857.1,2857.1,2857.1,2857.1,2857.1,2857.1,2857.1,2857.1,2857.1,2857.1,2857.1,2857.1,2857.1,2857.1,2857.1,2857.1,2857.1,2857.1,2857.1,2857.1,2857.1,2857.1,2857.1,2857.1,2857.1,2857.1,2857.1,2857.1,2857.1,2857.1,2857.1,2857.1,2857.1,2857.1,2857.1,2857.1,2857.1,2857.1,2857.1,2857.1,2857.1,2857.1,2857.1,2857.1,3076.9,3076.9,3076.9,3076.9,2857.1,2857.1,3076.9,3076.9,3076.9,2857.1,2857.1,2857.1,2666.7,2500,5000,5000,5000,5000,5000,5000,5000,5000,5000,5000,5000,5000,5000,5000,5000,5000,5000,5000,8000,8000,8000,8000,8000,8000,8000,8000,8000,8000,8000,8000,8000,8000,8000,8000,8000,8000,8000,8000,8000,8000,8000,8000,8000,8000,8000,8000,8000,8000,8000,8000,8000,8000,8000,8000,8000,8000,8000,8000,8000,8000,8000,8000,8000,8000,8000,8000,8000,8000,8000,8000,8000,8000,8000,Inf,0,0,0,0,0,0,0
0,0,0,0,0,0,0,Inf,Inf,40000,20000,13333,10000,8000,8000,8000,8000,8000,8000,8000,8000,8000,8000,8000,8000,8000,8000,8000,8000,8000,8000,8000,8000,8000,8000,8000,8000,8000,8000,8000,8000,8000,8000,8000,8000,8000,8000,8000,8000,8000,8000,8000,8000,8000,8000,8000,8000,8000,8000,8000,8000,8000,8000,8000,8000,8000,8000,8000,8000,8000,8000,8000,8000,8000,8000,8000,8000,8000,8000,8000,8000,8000,8000,8000,8000,8000,8000,8000,8000,8000,8000,8000,8000,8000,8000,8000,8000,8000,8000,8000,8000,8000,8000,8000,8000,8000,8000,8000,8000,8000,8000,8000,8000,8000,8000,8000,8000,8000,8000,8000,8000,8000,8000,6666.7,6666.7,-192.31,-193.24,-194.17,-199,4000,4000,4000,4000,4000,4000,4000,4000,3636.4,3636.4,4000,3636.4,3636.4,3636.4,3636.4,3636.4,8000,8000,8000,8000,8000,8000,8000,8000,8000,8000,8000,8000,8000,8000,8000,5000,4444.4,4000,4000,4000,4000,4000,4000,4000,4000,4000,4000,4000,4000,4000,4000,4000,4000,4000,4000,4000,4000,4000,4000,3636.4,4000,5000,5000,5000,5000,5000,5000,5000,5000,5000,5000,5000,5000,5000,5000,5000,5000,5000,5000,5000,5000,5000,5000,3076.9,3076.9,3076.9,3076.9,3076.9,3076.9,3076.9,3076.9,3076.9,3076.9,3076.9,3076.9,3076.9,3076.9,3076.9,2857.1,2857.1,2857.1,2857.1,2857.1,2857.1,2857.1,2857.1,2857.1,2857.1,2857.1,2857.1,2857.1,2857.1,2857.1,2857.1,2857.1,2857.1,2857.1,2857.1,2857.1,2857.1,2857.1,2857.1,2857.1,2857.1,2857.1,2857.1,2857.1,2857.1,2857.1,2857.1,2857.1,2857.1,2857.1,2857.1,2857.1,2857.1,2857.1,2857.1,2857.1,2857.1,2857.1,2857.1,2857.1,2857.1,2857.1,2857.1,2857.1,2857.1,2857.1,2857.1,2857.1,2857.1,2857.1,2857.1,2857.1,2857.1,2857.1,2857.1,2857.1,2857.1,2857.1,2857.1,2857.1,2857.1,3076.9,3076.9,3076.9,3076.9,2857.1,2857.1,3076.9,3076.9,3076.9,2857.1,2857.1,2857.1,2666.7,5000,5000,5000,5000,5000,5000,5000,5000,5000,5000,140.35,5000,5000,5000,5000,5000,5000,5000,8000,8000,8000,8000,8000,8000,8000,8000,8000,8000,8000,8000,8000,8000,8000,8000,8000,8000,8000,8000,8000,8000,8000,8000,8000,8000,8000,8000,8000,8000,8000,8000,8000,8000,8000,8000,8000,8000,8000,8000,8000,8000,8000,8000,8000,8000,8000,8000,8000,8000,8000,8000,8000,8000,8000,8000,Inf,0,0,0,0,0,0,0
0,0,0,0,0,0,0,Inf,Inf,40000,20000,13333,10000,8000,8000,8000,8000,8000,8000,8000,8000,8000,8000,8000,8000,8000,8000,8000,8000,8000,8000,8000,8000,8000,8000,8000,8000,8000,8000,8000,8000,8000,8000,8000,8000,8000,8000,8000,8000,8000,8000,8000,8000,8000,8000,8000,8000,8000,8000,8000,8000,8000,8000,8000,8000,8000,8000,8000,8000,8000,8000,8000,8000,8000,8000,8000,8000,8000,8000,8000,8000,8000,8000,8000,8000,8000,8000,8000,8000,8000,8000,8000,8000,8000,8000,8000,8000,8000,8000,8000,8000,8000,8000,8000,8000,8000,8000,8000,8000,8000,8000,6666.7,6666.7,6666.7,6666.7,6666.7,8000,8000,8000,8000,6666.7,6666.7,6666.7,6666.7,-178.57,-176.99,-194.17,-201.01,-201.01,4000,4000,4000,4000,4000,4000,4000,4000,3636.4,3636.4,4000,4000,3636.4,3636.4,3636.4,3636.4,8000,6666.7,8000,8000,8000,8000,8000,8000,8000,8000,8000,8000,4000,8000,4000,4000,4444.4,4000,4000,4000,4000,4000,4000,4000,4000,4000,4000,4000,4000,4000,4000,4000,4000,4000,4000,4000,4000,4000,4000,3636.4,4000,4000,5000,5000,5000,5000,5000,5000,5000,5000,5000,5000,5000,5000,5000,5000,5000,5000,5000,5000,5000,5000,5000,5000,3076.9,3076.9,3076.9,3076.9,3076.9,3076.9,3076.9,3076.9,3076.9,3076.9,3333.3,3076.9,3076.9,3076.9,3076.9,2857.1,2857.1,2857.1,2857.1,2857.1,2857.1,2857.1,2857.1,2857.1,2857.1,2857.1,2857.1,2857.1,2857.1,2857.1,2857.1,2857.1,2857.1,2857.1,2857.1,2857.1,2857.1,2857.1,2857.1,2857.1,2857.1,2857.1,2857.1,2857.1,2857.1,2857.1,2857.1,2857.1,2857.1,2857.1,2857.1,2857.1,2857.1,2857.1,2857.1,2857.1,2857.1,2857.1,2857.1,2857.1,2857.1,2857.1,2857.1,2857.1,2857.1,2857.1,2857.1,2857.1,2857.1,2857.1,2857.1,2857.1,2857.1,2857.1,2857.1,2857.1,2857.1,2857.1,2857.1,2857.1,3076.9,3076.9,3076.9,3076.9,2857.1,2857.1,3076.9,3076.9,3076.9,2857.1,2857.1,2857.1,2666.7,5000,5000,5000,5000,5000,5000,5000,5000,5000,140.35,140.35,140.35,5000,5000,5000,5000,5000,5000,8000,8000,8000,8000,8000,8000,8000,8000,8000,8000,8000,8000,8000,8000,8000,8000,8000,8000,8000,8000,8000,8000,8000,8000,8000,8000,8000,8000,8000,8000,8000,8000,8000,8000,8000,8000,8000,8000,8000,8000,8000,8000,8000,8000,8000,8000,8000,8000,8000,8000,8000,8000,8000,8000,8000,8000,Inf,0,0,0,0,0,0,0
0,0,0,0,0,0,0,Inf,Inf,40000,20000,13333,10000,8000,8000,8000,8000,8000,8000,8000,8000,8000,8000,8000,8000,8000,8000,8000,8000,8000,8000,8000,8000,8000,8000,8000,8000,8000,8000,8000,8000,8000,8000,8000,8000,8000,8000,8000,8000,8000,8000,8000,8000,8000,8000,8000,8000,8000,8000,8000,8000,8000,8000,8000,8000,8000,8000,8000,8000,8000,8000,8000,8000,8000,8000,8000,8000,8000,8000,8000,8000,8000,8000,8000,8000,8000,8000,8000,8000,8000,8000,8000,8000,8000,8000,8000,8000,8000,8000,8000,8000,8000,8000,8000,8000,8000,8000,8000,8000,8000,6666.7,6666.7,6666.7,6666.7,6666.7,6666.7,6666.7,6666.7,6666.7,6666.7,6666.7,6666.7,6666.7,5714.3,-178.57,-176.99,-200,-198.02,4000,4000,4000,4000,4000,4000,4000,4000,4000,4000,4000,4000,4000,4000,3636.4,3636.4,3636.4,3636.4,6666.7,8000,8000,8000,8000,8000,8000,8000,8000,8000,8000,4000,4000,4000,4000,4000,4000,4000,4000,4000,4000,4000,4000,4000,4000,4000,4000,4000,4000,4000,4000,4000,4000,4000,4000,4000,4000,4000,4000,4000,4000,5000,5000,5000,5000,5000,5000,5000,5000,5000,5000,5000,5000,5000,5000,5000,5000,5000,5000,5000,5000,5000,5000,3076.9,3076.9,3076.9,3076.9,3076.9,3076.9,3076.9,3076.9,3076.9,3076.9,3333.3,3333.3,3333.3,3333.3,3076.9,2857.1,2857.1,2857.1,2857.1,2857.1,2857.1,2857.1,2857.1,2857.1,2857.1,2857.1,2857.1,2857.1,2857.1,2857.1,2857.1,2857.1,2857.1,2857.1,2857.1,2857.1,2857.1,2857.1,2857.1,2857.1,2857.1,2857.1,2857.1,2857.1,2857.1,2857.1,2857.1,2857.1,2857.1,2857.1,2857.1,2857.1,2857.1,2857.1,2857.1,2857.1,2857.1,2857.1,2857.1,2857.1,2857.1,2857.1,2857.1,2857.1,2857.1,2857.1,2857.1,2857.1,2857.1,2857.1,2857.1,2857.1,2857.1,2857.1,2857.1,2857.1,2857.1,2857.1,2857.1,2857.1,3076.9,3076.9,3076.9,3076.9,2857.1,2857.1,3076.9,3076.9,3076.9,2857.1,2857.1,2857.1,2666.7,5000,5000,5000,5000,5000,5000,5000,5000,5000,5000,5000,5000,5000,5000,5000,5000,5000,5714.3,8000,8000,8000,8000,8000,8000,8000,8000,8000,8000,8000,8000,8000,8000,8000,8000,8000,8000,8000,8000,8000,8000,8000,8000,8000,8000,8000,8000,8000,8000,8000,8000,8000,8000,8000,8000,8000,8000,8000,8000,8000,8000,8000,8000,8000,8000,8000,8000,8000,8000,8000,8000,8000,8000,8000,8000,Inf,0,0,0,0,0,0,0
0,0,0,0,0,0,0,Inf,Inf,40000,20000,13333,10000,8000,8000,8000,8000,8000,8000,8000,8000,8000,8000,8000,8000,8000,8000,8000,8000,8000,8000,8000,8000,8000,8000,8000,8000,8000,8000,8000,8000,8000,8000,8000,8000,8000,8000,8000,8000,8000,8000,8000,8000,8000,8000,8000,8000,8000,8000,8000,8000,8000,8000,8000,8000,8000,8000,8000,8000,8000,8000,8000,8000,8000,8000,8000,8000,8000,8000,8000,8000,8000,8000,8000,8000,8000,8000,8000,8000,8000,8000,8000,8000,8000,8000,8000,8000,8000,8000,8000,8000,8000,8000,8000,8000,8000,8000,8000,6666.7,6666.7,6666.7,6666.7,6666.7,6666.7,6666.7,6666.7,6666.7,6666.7,6666.7,6666.7,6666.7,6666.7,5714.3,5714.3,-174.67,-175.44,-176.99,-176.99,4000,4000,4000,4000,4000,4000,4000,4000,4000,4000,4000,4000,4000,4000,3636.4,3636.4,3636.4,3636.4,3636.4,8000,8000,8000,5714.3,5000,5000,5000,8000,8000,4444.4,4000,4000,4000,4000,4000,4000,4000,4000,4000,4000,4000,4000,4000,4000,4000,4000,4000,4000,4000,4000,4000,4000,4000,4000,4000,4000,4000,4000,4000,4000,5000,5000,5000,5000,5000,5000,5000,5000,5000,5000,5000,5000,5000,5000,5000,5000,5000,5000,5000,5000,5000,3076.9,3076.9,3076.9,3076.9,3076.9,3076.9,3076.9,3076.9,3076.9,3076.9,3076.9,3333.3,3333.3,3333.3,3333.3,3076.9,2857.1,2857.1,2857.1,2857.1,2857.1,2857.1,2857.1,2857.1,2857.1,2857.1,2857.1,2857.1,2857.1,2857.1,2857.1,2857.1,2857.1,2857.1,2857.1,2857.1,2857.1,2857.1,2857.1,2857.1,2857.1,2857.1,2857.1,2857.1,2857.1,2857.1,2857.1,2857.1,2857.1,2857.1,2857.1,2857.1,2857.1,2857.1,2857.1,2857.1,2857.1,2857.1,2857.1,2857.1,2857.1,2857.1,2857.1,2857.1,2857.1,2857.1,2857.1,2857.1,2857.1,2857.1,2857.1,2857.1,2857.1,2857.1,2857.1,2857.1,2857.1,2857.1,2857.1,2857.1,2857.1,2857.1,3076.9,3076.9,2857.1,2857.1,2857.1,3076.9,3076.9,3076.9,2857.1,2857.1,2857.1,5000,5000,5000,5000,5000,5000,5000,5000,5000,5000,400,5000,5000,5000,5000,5000,5000,5000,5714.3,8000,8000,8000,6666.7,5714.3,8000,8000,8000,8000,8000,8000,8000,8000,8000,8000,8000,8000,8000,8000,8000,8000,8000,8000,8000,8000,8000,8000,8000,8000,8000,8000,8000,8000,8000,8000,8000,8000,8000,8000,8000,8000,8000,8000,8000,8000,8000,8000,8000,8000,8000,8000,8000,8000,8000,8000,8000,Inf,0,0,0,0,0,0,0
0,0,0,0,0,0,0,Inf,Inf,40000,20000,13333,10000,8000,8000,8000,8000,8000,8000,8000,8000,8000,8000,8000,8000,8000,8000,8000,8000,8000,8000,8000,8000,8000,8000,8000,8000,8000,8000,8000,8000,8000,8000,8000,8000,8000,8000,8000,8000,8000,8000,8000,8000,8000,8000,8000,8000,8000,8000,8000,8000,8000,8000,8000,8000,8000,8000,8000,8000,8000,8000,8000,8000,8000,8000,8000,8000,8000,8000,8000,8000,8000,8000,8000,8000,8000,8000,8000,8000,8000,8000,8000,8000,8000,8000,8000,8000,8000,8000,8000,8000,8000,8000,8000,8000,8000,8000,8000,6666.7,6666.7,6666.7,6666.7,6666.7,6666.7,6666.7,6666.7,6666.7,6666.7,6666.7,6666.7,6666.7,6666.7,6666.7,5714.3,-174.67,-175.44,-176.99,-176.99,4000,4000,4000,4000,4000,4000,4000,4000,4000,4000,4000,4000,4000,4000,3636.4,3636.4,3636.4,3636.4,3636.4,3636.4,8000,6666.7,5714.3,5000,4444.4,4444.4,4444.4,5000,4444.4,4000,4000,4000,4000,4000,4000,4000,4000,4000,4000,4000,4000,4000,4000,4000,4000,4000,4000,4000,4000,4000,4000,4000,4000,4000,4000,4000,4000,4000,4000,5000,5000,5000,5000,5000,5000,5000,5000,5000,5000,5000,5000,5000,5000,5000,5000,5000,5000,5000,5000,5000,3076.9,3076.9,3076.9,3076.9,3076.9,3076.9,3076.9,3076.9,3076.9,3076.9,3076.9,3076.9,3076.9,3076.9,3076.9,2857.1,2857.1,2857.1,2857.1,2857.1,2857.1,2857.1,2857.1,2857.1,2857.1,2857.1,2857.1,2857.1,2857.1,2857.1,2857.1,2857.1,2857.1,2857.1,2857.1,2857.1,2857.1,2857.1,2857.1,2857.1,2857.1,2857.1,2857.1,2857.1,2857.1,2857.1,2857.1,2857.1,2857.1,2857.1,2857.1,2857.1,2857.1,2857.1,2857.1,2857.1,2857.1,2857.1,2857.1,2857.1,2857.1,2857.1,2857.1,2857.1,2857.1,2857.1,2857.1,2857.1,2857.1,2857.1,2857.1,2857.1,2857.1,2857.1,2857.1,2857.1,2857.1,2857.1,2857.1,2857.1,2857.1,2857.1,3076.9,3076.9,2857.1,2857.1,2857.1,3076.9,5000,5000,5000,5000,5000,5000,5000,5000,5000,5000,5000,5000,5000,5000,5000,5000,5000,5000,5000,5000,5000,5000,5000,5714.3,5714.3,5714.3,5714.3,5714.3,5714.3,5000,6666.7,8000,8000,8000,8000,8000,8000,8000,8000,8000,8000,8000,8000,8000,8000,8000,8000,8000,8000,8000,8000,8000,8000,8000,8000,8000,8000,8000,8000,8000,8000,8000,8000,8000,8000,8000,8000,8000,8000,8000,8000,8000,8000,8000,8000,8000,8000,8000,8000,8000,Inf,0,0,0,0,0,0,0
0,0,0,0,0,0,0,Inf,Inf,40000,20000,13333,10000,8000,8000,8000,8000,8000,8000,8000,8000,8000,8000,8000,8000,8000,8000,8000,8000,8000,8000,8000,8000,8000,8000,8000,8000,8000,8000,8000,8000,8000,8000,8000,8000,8000,8000,8000,8000,8000,8000,8000,8000,8000,8000,8000,8000,8000,8000,8000,8000,8000,8000,8000,8000,8000,8000,8000,8000,8000,8000,8000,8000,8000,8000,8000,8000,8000,8000,8000,8000,8000,8000,8000,8000,8000,8000,8000,8000,8000,8000,8000,8000,8000,8000,8000,8000,8000,8000,8000,8000,8000,8000,8000,8000,8000,8000,8000,6666.7,6666.7,6666.7,6666.7,6666.7,6666.7,6666.7,6666.7,6666.7,6666.7,6666.7,6666.7,6666.7,6666.7,5714.3,-165.29,-174.67,-175.44,-176.99,-176.99,4000,4000,4000,4000,4000,4000,4000,4000,4000,4000,4000,4000,4000,4000,4000,4000,3636.4,3636.4,3636.4,3636.4,5714.3,3636.4,3636.4,5000,4444.4,4000,4000,4444.4,4444.4,4000,4000,4000,4000,4000,4000,4000,4000,4000,4000,4000,4000,4000,4000,4000,4000,4000,4000,4000,4000,4000,4000,4000,4000,4000,4000,4000,4000,4000,4000,4000,5000,5000,5000,5000,5000,5000,5000,5000,5000,5000,5000,5000,5000,5000,5000,5000,5000,5000,5000,3076.9,3076.9,3076.9,3076.9,3076.9,3076.9,3076.9,3076.9,3076.9,3076.9,3076.9,2857.1,2857.1,3333.3,3076.9,2857.1,2857.1,2857.1,2857.1,2857.1,2857.1,2857.1,2857.1,2857.1,2857.1,2857.1,2857.1,2857.1,2857.1,2857.1,2857.1,2857.1,2857.1,2857.1,2857.1,2857.1,2857.1,2857.1,2857.1,2857.1,2857.1,2857.1,2857.1,2857.1,2857.1,2857.1,2857.1,2857.1,2857.1,2857.1,2857.1,2857.1,2857.1,2857.1,2857.1,2857.1,2857.1,2857.1,2857.1,2857.1,2857.1,2857.1,2857.1,2857.1,2857.1,2857.1,2857.1,2857.1,2857.1,2857.1,2857.1,2857.1,2857.1,2857.1,2857.1,2857.1,2857.1,2857.1,2857.1,2857.1,2857.1,2857.1,2857.1,3076.9,3076.9,2857.1,2857.1,2857.1,3076.9,5000,5000,5000,5000,5000,5000,5000,5000,5000,5000,5000,5000,5000,5000,5000,5000,5000,5000,5000,5000,5000,5000,5000,5000,5714.3,5000,5000,5000,5000,5000,6666.7,8000,6666.7,8000,8000,6666.7,6666.7,2857.1,2857.1,2857.1,2857.1,2857.1,2857.1,8000,8000,8000,8000,8000,8000,8000,8000,8000,8000,8000,8000,8000,8000,8000,8000,8000,8000,8000,8000,8000,8000,8000,8000,8000,8000,8000,8000,8000,8000,8000,8000,8000,8000,8000,8000,8000,Inf,0,0,0,0,0,0,0
0,0,0,0,0,0,0,Inf,Inf,40000,20000,13333,10000,8000,8000,8000,8000,8000,8000,8000,8000,8000,8000,8000,8000,8000,8000,8000,8000,8000,8000,8000,8000,8000,8000,8000,8000,8000,8000,8000,8000,8000,8000,8000,8000,8000,8000,8000,8000,8000,8000,8000,8000,8000,8000,8000,8000,8000,8000,8000,8000,8000,8000,8000,8000,8000,8000,8000,8000,8000,8000,8000,8000,8000,8000,8000,8000,8000,8000,8000,8000,8000,8000,8000,8000,8000,8000,8000,8000,8000,8000,8000,8000,8000,8000,8000,8000,8000,8000,8000,8000,8000,8000,8000,8000,8000,8000,8000,6666.7,6666.7,6666.7,6666.7,6666.7,6666.7,6666.7,6666.7,6666.7,6666.7,6666.7,6666.7,6666.7,6666.7,-165.29,-165.29,-174.67,-175.44,-176.99,4000,4000,4000,4000,4000,4000,4000,4000,4000,4000,4000,4000,4000,4000,4000,4000,4000,4000,3636.4,3636.4,3636.4,3636.4,3636.4,3636.4,4000,4444.4,4000,4000,4000,4000,4000,4000,4000,4000,4000,4000,4000,4000,4000,4000,4000,4000,4000,4000,4000,4000,4000,4000,4000,4000,4000,4000,4000,4000,4000,4000,4000,4000,4000,4000,4000,5000,5000,5000,5000,5000,5000,5000,5000,5000,5000,5000,5000,5000,5000,5000,5000,5000,5000,3076.9,3076.9,3076.9,3076.9,3076.9,3076.9,3076.9,2857.1,2857.1,2857.1,2857.1,2857.1,2857.1,2857.1,2857.1,2857.1,2857.1,2857.1,2857.1,2857.1,2857.1,2857.1,2857.1,2857.1,2857.1,2857.1,2857.1,2857.1,2857.1,2857.1,2857.1,2857.1,2857.1,2857.1,2857.1,2857.1,2857.1,2857.1,2857.1,2857.1,2857.1,2857.1,2857.1,2857.1,2857.1,2857.1,2857.1,2857.1,2857.1,2857.1,2857.1,2857.1,2857.1,2857.1,2857.1,2857.1,2857.1,2857.1,2857.1,2857.1,2857.1,2857.1,2857.1,3076.9,3076.9,3076.9,2857.1,2857.1,2857.1,2857.1,2857.1,2857.1,2857.1,2857.1,2857.1,2857.1,2857.1,2857.1,2857.1,2857.1,2857.1,2857.1,2857.1,2857.1,3076.9,3076.9,3076.9,2857.1,2857.1,3076.9,5000,5000,5000,5000,5000,5000,5000,5000,5000,5000,5000,5000,5000,5000,5000,5000,5000,5000,5000,5000,5000,5000,5000,5000,5000,5000,5000,5000,5000,5000,6666.7,6666.7,6666.7,6666.7,6666.7,6666.7,2857.1,2857.1,2857.1,2857.1,2857.1,2857.1,2857.1,2666.7,2500,8000,8000,8000,8000,8000,8000,8000,8000,8000,8000,8000,8000,8000,8000,8000,8000,8000,8000,8000,8000,8000,8000,8000,8000,8000,8000,8000,8000,8000,8000,8000,8000,8000,8000,8000,Inf,0,0,0,0,0,0,0
0,0,0,0,0,0,0,Inf,Inf,40000,20000,13333,10000,8000,8000,8000,8000,8000,8000,8000,8000,8000,8000,8000,8000,8000,8000,8000,8000,8000,8000,8000,8000,8000,8000,8000,8000,8000,8000,8000,8000,8000,8000,8000,8000,8000,8000,8000,8000,8000,8000,8000,8000,8000,8000,8000,8000,8000,8000,8000,8000,8000,8000,8000,8000,8000,8000,8000,8000,8000,8000,8000,8000,8000,8000,8000,8000,8000,8000,8000,8000,8000,8000,8000,8000,8000,8000,8000,8000,8000,8000,8000,8000,8000,8000,8000,8000,8000,8000,8000,8000,8000,8000,8000,8000,8000,8000,8000,6666.7,6666.7,6666.7,6666.7,6666.7,6666.7,6666.7,6666.7,6666.7,6666.7,6666.7,6666.7,6666.7,-165.29,-165.29,-165.29,-165.29,-175.44,-506.33,4000,4000,4000,4000,4000,4000,4000,4000,4000,4000,4000,4000,4000,4000,4000,4000,4000,4000,4000,3636.4,3636.4,3636.4,3636.4,4000,4000,4444.4,4000,4000,4000,4000,4000,4000,4000,4000,4000,4000,4000,4000,4000,4000,4000,4000,4000,4000,4000,4000,4000,4000,4000,4000,4000,4000,4000,4000,4000,4000,4000,4000,4000,4000,4000,5000,5000,5000,5000,5000,5000,5000,5000,5000,5000,5000,5000,5000,5000,5000,5000,5000,4000,3076.9,3076.9,3076.9,2857.1,2857.1,2857.1,3076.9,2857.1,2857.1,2857.1,2857.1,2857.1,2857.1,2857.1,2857.1,2857.1,2857.1,2857.1,2857.1,2857.1,2857.1,2857.1,2857.1,2857.1,2857.1,2857.1,2857.1,2857.1,2857.1,2857.1,2857.1,2857.1,2857.1,2857.1,2857.1,2857.1,2857.1,2857.1,2857.1,2857.1,2857.1,2857.1,2857.1,2857.1,2857.1,2857.1,2857.1,2857.1,2857.1,2857.1,1666.7,1666.7,1666.7,-388.35,-396.04,-396.04,-396.04,800,800,784.31,769.23,769.23,754.72,3333.3,3333.3,3076.9,3076.9,2857.1,2857.1,2857.1,2857.1,2857.1,2857.1,2857.1,2857.1,2857.1,2857.1,2857.1,2857.1,2857.1,2857.1,2857.1,2857.1,2857.1,3076.9,3076.9,3076.9,2857.1,2857.1,2857.1,5000,5000,5000,5000,5000,5000,5000,5000,5000,5000,5000,5000,5000,5000,5000,5000,5000,5000,5000,5000,5000,5000,5000,5000,5000,5000,5000,5000,5000,5000,8000,6666.7,6666.7,8000,6666.7,3333.3,2857.1,2857.1,2857.1,2857.1,2857.1,2857.1,2857.1,2666.7,2666.7,2500,8000,8000,8000,8000,8000,8000,8000,8000,8000,8000,8000,8000,8000,8000,8000,8000,8000,8000,8000,8000,8000,8000,8000,8000,8000,8000,8000,8000,8000,8000,8000,8000,8000,8000,Inf,0,0,0,0,0,0,0
0,0,0,0,0,0,0,Inf,Inf,40000,20000,13333,10000,8000,8000,8000,8000,8000,8000,8000,8000,8000,8000,8000,8000,8000,8000,8000,8000,8000,8000,8000,8000,8000,8000,8000,8000,8000,8000,8000,8000,8000,8000,8000,8000,8000,8000,8000,8000,8000,8000,8000,8000,8000,8000,8000,8000,8000,8000,8000,8000,8000,8000,8000,8000,8000,8000,8000,8000,8000,8000,8000,8000,8000,8000,8000,8000,8000,8000,8000,8000,8000,8000,8000,8000,8000,8000,8000,8000,8000,8000,8000,8000,8000,8000,8000,8000,8000,8000,8000,8000,8000,8000,8000,8000,8000,8000,6666.7,6666.7,6666.7,6666.7,6666.7,6666.7,6666.7,6666.7,6666.7,6666.7,6666.7,6666.7,6666.7,-165.29,-165.29,-165.29,-165.29,-165.29,-487.8,4000,4000,4000,4000,4000,4000,4000,4000,4000,4000,4000,4000,4000,4000,4000,4000,4000,4000,4000,4000,4000,4000,4000,4000,4000,4000,4000,4000,4000,4000,4000,4000,4000,4000,4000,4000,4000,4000,4000,4000,4000,4000,4000,4000,4000,4000,4000,4000,4000,4000,4000,4000,4000,4000,4000,4000,4000,4000,4000,4000,4000,4000,4000,4000,4000,5000,5000,5000,5000,5000,5000,5000,5000,5000,5000,5000,5000,5000,5000,5000,5000,3076.9,3076.9,3076.9,3076.9,3333.3,3076.9,2857.1,2857.1,3076.9,2857.1,2857.1,2857.1,2857.1,2857.1,2857.1,2857.1,2857.1,2857.1,2857.1,2857.1,2857.1,2857.1,2857.1,2857.1,2857.1,2857.1,2857.1,2857.1,2857.1,2857.1,2857.1,2857.1,2857.1,2857.1,2857.1,2857.1,2857.1,2857.1,2857.1,2857.1,2857.1,2857.1,2857.1,2857.1,2857.1,2857.1,2857.1,2857.1,1666.7,1666.7,1666.7,1666.7,1666.7,1600,1052.6,1052.6,1052.6,155.64,155.04,754.72,740.74,154.44,153.85,153.85,153.85,153.85,3076.9,2857.1,2857.1,2857.1,2857.1,2857.1,2857.1,2857.1,2857.1,2857.1,2857.1,2857.1,2857.1,2857.1,2857.1,2857.1,2857.1,3076.9,3076.9,3076.9,2857.1,2857.1,5000,5000,5000,5000,5000,5000,5000,5000,5000,5000,5000,5000,5000,5000,5000,5000,5000,5000,5000,5000,5000,5000,5000,5000,5000,5000,5000,5000,5000,5000,5000,5000,6666.7,5000,4000,3636.4,3333.3,2857.1,2857.1,2857.1,2857.1,2857.1,2857.1,2857.1,2857.1,2857.1,2857.1,2857.1,2857.1,2857.1,2857.1,2857.1,2857.1,2500,8000,8000,8000,8000,8000,8000,8000,8000,8000,8000,8000,8000,8000,8000,8000,8000,8000,8000,8000,8000,8000,8000,8000,8000,8000,8000,8000,Inf,0,0,0,0,0,0,0
0,0,0,0,0,0,0,Inf,-195.12,40000,20000,13333,10000,8000,8000,8000,8000,8000,8000,8000,8000,8000,8000,8000,8000,8000,8000,8000,8000,8000,8000,8000,8000,8000,8000,8000,8000,8000,8000,8000,8000,8000,8000,8000,8000,8000,8000,8000,8000,8000,8000,8000,8000,8000,8000,8000,8000,8000,8000,8000,8000,8000,8000,8000,8000,8000,8000,8000,8000,8000,8000,8000,8000,8000,8000,8000,8000,8000,8000,8000,8000,8000,8000,8000,8000,8000,8000,8000,8000,8000,8000,8000,8000,8000,8000,8000,8000,8000,8000,8000,8000,8000,8000,8000,8000,8000,8000,6666.7,6666.7,6666.7,6666.7,6666.7,6666.7,6666.7,6666.7,6666.7,6666.7,6666.7,6666.7,701.75,-165.29,-165.29,-165.29,-165.29,341.88,4000,4000,4000,4000,4000,4000,4000,4000,4000,4000,4000,4000,4000,4000,4000,4000,4000,4000,4000,4000,4000,4000,4000,4000,4000,4000,4000,4000,4000,4000,4000,4000,4000,4000,4000,4000,4000,4000,4000,4000,4000,4000,4000,4000,4000,4000,4000,4000,4000,4000,4000,4000,4000,4000,4000,4000,4000,4000,4000,4000,4000,4000,4000,4000,4000,4000,4000,5000,5000,5000,5000,5000,5000,5000,5000,5000,5000,5000,5000,5000,5000,5000,5000,5000,5000,5000,3636.4,3636.4,3636.4,3333.3,3076.9,3076.9,2857.1,2857.1,2857.1,2857.1,2857.1,2857.1,2857.1,2857.1,2857.1,2857.1,2857.1,2857.1,2857.1,2857.1,2857.1,2857.1,2857.1,2857.1,2857.1,2857.1,2857.1,2857.1,2857.1,2857.1,2857.1,2857.1,2857.1,2857.1,2857.1,2857.1,2857.1,2857.1,2857.1,2857.1,2857.1,2857.1,2857.1,2857.1,1666.7,1666.7,1666.7,1666.7,1666.7,1600,1081.1,1081.1,1052.6,155.64,155.04,154.44,154.44,154.44,153.85,153.85,153.85,151.52,151.52,150.94,2857.1,2857.1,2857.1,2857.1,2857.1,2857.1,2857.1,2857.1,2857.1,2857.1,2857.1,2857.1,2857.1,2857.1,2857.1,2857.1,3076.9,2857.1,2857.1,2857.1,5000,5000,5000,5000,5000,5000,5000,5000,5000,5000,5000,5000,5000,5000,5000,5000,5000,5000,5000,5000,5000,5000,5000,5000,5000,5000,5000,5000,5000,5000,5000,5000,6666.7,5000,4000,3333.3,3333.3,2857.1,2857.1,2857.1,2857.1,2857.1,2857.1,2857.1,2857.1,2857.1,2857.1,2857.1,2857.1,2857.1,2857.1,2857.1,2857.1,2857.1,2500,2500,8000,8000,8000,8000,8000,8000,8000,8000,8000,8000,8000,8000,8000,8000,8000,8000,8000,8000,8000,8000,8000,8000,8000,8000,8000,Inf,0,0,0,0,0,0,0
0,0,0,0,0,0,0,Inf,-195.12,40000,20000,13333,10000,8000,8000,8000,8000,8000,8000,8000,8000,8000,8000,8000,8000,8000,8000,8000,8000,8000,8000,8000,8000,8000,8000,8000,8000,8000,8000,8000,8000,8000,8000,8000,8000,8000,8000,8000,8000,8000,8000,8000,8000,8000,8000,8000,8000,8000,8000,8000,8000,8000,8000,8000,8000,8000,8000,8000,8000,8000,8000,8000,8000,8000,8000,8000,8000,8000,8000,8000,8000,8000,8000,8000,8000,8000,8000,8000,8000,8000,8000,8000,8000,8000,8000,8000,8000,8000,8000,8000,8000,8000,8000,8000,8000,8000,8000,6666.7,6666.7,6666.7,6666.7,6666.7,6666.7,6666.7,6666.7,6666.7,6666.7,6666.7,6666.7,701.75,-165.29,-165.29,-330.58,-330.58,341.88,4000,4000,4000,4000,4000,4000,4000,4000,4000,4000,4000,4000,4000,4000,4000,4000,4000,4000,4000,4000,4000,4000,4000,4000,4000,4000,4000,4000,4000,4000,4000,4000,4000,4000,4000,4000,4000,4000,4000,4000,3636.4,4000,4000,4000,4000,4000,4000,4000,4000,4000,4000,4000,4000,4000,4000,4000,4000,4000,4000,4000,4000,4000,4000,4000,4000,4000,4000,4000,5000,5000,5000,5000,5000,5000,5000,5000,5000,5000,5000,5000,5000,5000,5000,5000,5000,5000,3636.4,3636.4,3636.4,3333.3,3076.9,3333.3,2857.1,2857.1,2857.1,2857.1,2857.1,2857.1,2857.1,2857.1,2857.1,2857.1,2857.1,2857.1,2857.1,2857.1,2857.1,2857.1,2857.1,2857.1,2857.1,2857.1,2857.1,2857.1,2857.1,2857.1,2857.1,2857.1,2857.1,2857.1,2857.1,2857.1,2857.1,2857.1,2857.1,2857.1,2857.1,2857.1,2857.1,2857.1,2000,1666.7,1666.7,1666.7,1666.7,1600,1081.1,1081.1,1052.6,155.64,155.04,154.44,714.29,655.74,153.85,153.85,152.09,151.52,151.52,150.94,150.38,2857.1,-769.23,2857.1,2857.1,2857.1,2857.1,2857.1,2857.1,2857.1,2857.1,2857.1,2857.1,2857.1,2857.1,2857.1,3076.9,2857.1,2857.1,2857.1,5000,5000,5000,5000,5000,5000,5000,5000,5000,5000,5000,5000,5000,5000,5000,5000,5000,5000,5000,5000,5000,5000,5000,5000,5000,5000,5000,5000,5000,5000,5000,5000,8000,4000,4000,3333.3,3333.3,2857.1,2857.1,2857.1,2857.1,2857.1,2857.1,2857.1,2857.1,2857.1,2857.1,2857.1,2857.1,2857.1,2857.1,2857.1,2857.1,2857.1,2500,2500,2500,8000,8000,8000,8000,8000,8000,8000,8000,8000,8000,8000,8000,8000,8000,8000,8000,8000,8000,8000,8000,8000,8000,8000,8000,Inf,0,0,0,0,0,0,0
0,0,0,0,0,0,0,Inf,-197.04,40000,20000,13333,10000,8000,8000,8000,8000,8000,8000,8000,8000,8000,8000,8000,8000,8000,8000,8000,8000,8000,8000,8000,8000,8000,8000,8000,8000,8000,8000,8000,8000,8000,8000,8000,8000,8000,8000,8000,8000,8000,8000,8000,8000,8000,8000,8000,8000,8000,8000,8000,8000,8000,8000,8000,8000,8000,8000,8000,8000,8000,8000,8000,8000,8000,8000,8000,8000,8000,8000,8000,8000,8000,8000,8000,8000,8000,8000,8000,8000,8000,8000,8000,8000,8000,8000,8000,8000,8000,8000,8000,8000,8000,8000,8000,8000,8000,8000,6666.7,6666.7,6666.7,6666.7,6666.7,6666.7,6666.7,6666.7,6666.7,6666.7,6666.7,714.29,-165.29,-165.29,-165.29,-330.58,-330.58,4000,4000,4000,4000,4000,4000,4000,4000,4000,4000,4000,4000,4000,4000,4000,4000,4000,4000,4000,4000,4000,4000,4000,4000,4000,4000,4000,4000,4000,4000,4000,4000,4000,4000,4000,4000,4000,4000,4000,4000,4000,3636.4,4000,4000,4000,4000,4000,4000,4000,4000,4000,4000,4000,4000,4000,4000,4000,4000,4000,4000,4000,4000,4000,4000,4000,4000,4000,4000,4000,4000,5000,5000,5000,5000,5000,5000,5000,5000,5000,5000,5000,5000,5000,5000,5000,5000,5000,5000,4000,3636.4,3333.3,3333.3,3333.3,2857.1,2857.1,2857.1,2857.1,2857.1,2857.1,2857.1,2857.1,2857.1,2857.1,2857.1,2857.1,2857.1,2857.1,2857.1,2857.1,2857.1,2857.1,2857.1,2857.1,2857.1,2857.1,2857.1,2857.1,2857.1,2857.1,2857.1,2857.1,2857.1,2857.1,2857.1,2857.1,2857.1,2857.1,2857.1,2666.7,2857.1,2857.1,2222.2,2105.3,2000,1904.8,1666.7,1666.7,1052.6,1052.6,-689.66,-701.75,-714.29,701.75,645.16,625,606.06,597.01,588.24,151.52,151.52,150.94,150.38,158.73,158.73,158.73,158.73,158.73,158.73,2857.1,2857.1,2857.1,2857.1,2857.1,2857.1,2857.1,2857.1,2857.1,3076.9,2857.1,2857.1,2857.1,5000,5000,5000,5000,5000,5000,5000,5000,5000,5000,5000,5000,5000,5000,5000,5000,5000,5000,5000,5000,5000,5000,5000,5000,5000,5000,5000,5000,5000,5000,5000,5000,8000,4000,3636.4,3333.3,3333.3,2857.1,2857.1,2857.1,2857.1,2857.1,2857.1,2857.1,2857.1,2857.1,2857.1,2857.1,2857.1,2857.1,2857.1,2857.1,2857.1,2857.1,2857.1,2666.7,2500,2500,2857.1,8000,8000,8000,2857.1,2857.1,8000,8000,8000,8000,8000,8000,8000,8000,8000,8000,8000,8000,8000,8000,8000,8000,8000,Inf,0,0,0,0,0,0,0
0,0,0,0,0,0,0,Inf,-197.04,-198.02,20000,13333,10000,8000,8000,8000,8000,8000,8000,8000,8000,8000,8000,8000,8000,8000,8000,8000,8000,8000,8000,8000,8000,8000,8000,8000,8000,8000,8000,8000,8000,8000,8000,8000,8000,8000,8000,8000,8000,8000,8000,8000,8000,8000,8000,8000,8000,8000,8000,8000,8000,8000,8000,8000,8000,8000,8000,8000,8000,8000,8000,8000,8000,8000,8000,8000,8000,8000,8000,8000,8000,8000,8000,8000,8000,8000,8000,8000,8000,8000,8000,8000,8000,8000,8000,8000,8000,8000,8000,8000,8000,8000,8000,8000,8000,8000,8000,6666.7,6666.7,6666.7,6666.7,6666.7,6666.7,6666.7,6666.7,6666.7,701.75,701.75,-165.29,-165.29,-165.29,-251.57,-253.16,4000,4000,4000,4000,4000,4000,4000,4000,4000,4000,4000,4000,4000,4000,4000,4000,4000,4000,4000,4000,4000,4000,4000,4000,4000,4000,4000,4000,4000,4000,4000,4000,4000,4000,4000,4000,4000,4000,4000,4000,4000,4000,3636.4,4000,4000,4000,4000,4000,4000,4000,4000,4000,4000,4000,4000,3636.4,3636.4,3636.4,4000,4000,4000,4000,4000,4000,4000,4000,4000,4000,4000,4000,4000,4000,4000,5000,5000,5000,5000,5000,5000,5000,5000,5000,5000,5000,4000,4000,3636.4,4000,3636.4,3333.3,3636.4,3333.3,3333.3,2857.1,2857.1,2857.1,2857.1,2857.1,2857.1,2857.1,2857.1,2857.1,2857.1,2857.1,2857.1,2857.1,2857.1,2857.1,2857.1,2857.1,2857.1,2857.1,2857.1,2857.1,2857.1,2857.1,2857.1,2857.1,2857.1,2857.1,2857.1,2857.1,2857.1,2857.1,2857.1,2857.1,2857.1,2857.1,2857.1,2666.7,2500,2352.9,2222.2,2105.3,1904.8,1904.8,1818.2,1379.3,8000,8000,-689.66,-701.75,-714.29,701.75,625,625,606.06,579.71,555.56,151.52,151.52,150.94,150.38,158.73,158.73,158.73,158.73,158.73,158.73,158.73,2857.1,2857.1,2857.1,2857.1,2857.1,2857.1,2857.1,2857.1,3076.9,2857.1,2857.1,2857.1,5000,5000,5000,5000,5000,5000,5000,5000,5000,5000,5000,5000,5000,5000,5000,5000,5000,5000,5000,5000,5000,5000,5000,5000,5000,5000,5000,5000,5000,5000,5000,8000,344.83,338.98,333.33,3333.3,3333.3,2857.1,2857.1,2857.1,2857.1,2857.1,2857.1,2857.1,2857.1,2857.1,2857.1,2857.1,2857.1,2857.1,2857.1,2857.1,2857.1,2857.1,2857.1,2666.7,2500,2500,2857.1,2857.1,2857.1,2857.1,3076.9,2857.1,2857.1,8000,8000,8000,8000,8000,8000,8000,8000,8000,8000,8000,8000,8000,8000,8000,8000,Inf,0,0,0,0,0,0,0
0,0,0,0,0,0,0,Inf,-197.04,-200,20000,13333,10000,8000,8000,8000,8000,8000,8000,8000,8000,8000,8000,8000,8000,8000,8000,8000,8000,8000,8000,8000,8000,8000,8000,8000,8000,8000,8000,8000,8000,8000,8000,8000,8000,8000,8000,8000,8000,8000,8000,8000,8000,8000,8000,8000,8000,8000,8000,8000,8000,8000,8000,8000,8000,8000,8000,8000,8000,8000,8000,8000,8000,8000,8000,8000,8000,8000,8000,8000,8000,8000,8000,8000,8000,8000,8000,8000,8000,8000,8000,8000,8000,8000,8000,8000,8000,8000,8000,8000,8000,8000,8000,8000,8000,8000,8000,6666.7,6666.7,6666.7,6666.7,6666.7,6666.7,6666.7,6666.7,701.75,701.75,701.75,-165.29,-165.29,-165.29,-251.57,4444.4,4000,4000,4000,4000,4000,4000,4000,4000,4000,4000,4000,4000,4000,4000,4000,4000,4000,4000,4000,4000,4000,4000,4000,4000,4000,4000,4000,4000,4000,4000,4000,4000,4000,4000,4000,4000,4000,4000,4000,4000,4000,3636.4,3636.4,4000,4000,4000,4000,4000,4000,4000,4000,4000,4000,4000,4000,3636.4,3636.4,3636.4,3636.4,4000,3636.4,3636.4,4000,3636.4,3636.4,4000,3333.3,4000,3333.3,3333.3,4000,4000,4000,5000,5000,5000,5000,5000,5000,5000,5000,5000,5000,5000,4000,4000,3636.4,3636.4,3333.3,3076.9,2857.1,2857.1,2857.1,2857.1,2857.1,2857.1,2857.1,2857.1,2857.1,2857.1,2857.1,2857.1,2857.1,2857.1,2857.1,2857.1,2857.1,2857.1,2857.1,2857.1,2857.1,2857.1,2857.1,2857.1,2857.1,2857.1,2857.1,2857.1,2857.1,2857.1,2857.1,2857.1,2857.1,2857.1,2857.1,2857.1,2857.1,2857.1,2857.1,2666.7,2352.9,2352.9,2222.2,2105.3,1904.8,1904.8,1818.2,1600,1333.3,8000,8000,-714.29,-714.29,701.75,625,625,625,588.24,152.09,151.52,151.52,150.94,158.73,158.73,158.73,158.73,158.73,158.73,158.73,158.73,2857.1,2857.1,2857.1,2857.1,2857.1,2857.1,2857.1,2857.1,3076.9,2857.1,2857.1,5000,5000,5000,5000,5000,5000,5000,5000,5000,5000,5000,5000,5000,5000,5000,5000,5000,5000,5000,5000,5000,5000,5000,5000,5000,5000,5000,5000,5000,5000,5000,5000,8000,8000,333.33,333.33,333.33,3076.9,2857.1,2857.1,2857.1,2857.1,2857.1,2857.1,2857.1,2857.1,2857.1,2857.1,2857.1,2857.1,2857.1,2857.1,2857.1,2857.1,2857.1,2857.1,2666.7,2500,2857.1,2857.1,2857.1,2857.1,2857.1,3076.9,2857.1,2857.1,2857.1,8000,8000,8000,8000,8000,8000,8000,8000,8000,8000,8000,8000,8000,8000,8000,6666.7,0,0,0,0,0,0,0
0,0,0,0,0,0,0,Inf,-197.04,-200,20000,13333,10000,8000,8000,8000,8000,8000,8000,8000,8000,8000,8000,8000,8000,8000,8000,8000,8000,8000,8000,8000,8000,8000,8000,8000,8000,8000,8000,8000,8000,8000,8000,8000,8000,8000,8000,8000,8000,8000,8000,8000,8000,8000,8000,8000,8000,8000,8000,8000,8000,8000,8000,8000,8000,8000,8000,8000,8000,8000,8000,8000,8000,8000,8000,8000,8000,8000,8000,8000,8000,8000,8000,8000,8000,8000,8000,8000,8000,8000,8000,8000,8000,8000,8000,8000,8000,8000,8000,8000,8000,8000,8000,8000,8000,8000,6666.7,6666.7,6666.7,6666.7,6666.7,6666.7,6666.7,6666.7,701.75,701.75,701.75,701.75,392.16,4444.4,4000,4444.4,4000,4000,4000,4000,4000,4000,4000,4000,4000,4000,4000,4000,4000,4000,4000,4000,4000,4000,4000,4000,4000,4000,4000,4000,4000,4000,4000,4000,4000,4000,4000,4000,4000,4000,4000,4000,4000,4000,4000,4000,4000,4000,3636.4,3636.4,4000,4000,4000,4000,4000,4000,4000,4000,4000,4000,4000,3636.4,3636.4,3636.4,3636.4,3636.4,3636.4,3636.4,3636.4,3636.4,3636.4,3636.4,3333.3,3333.3,3333.3,3333.3,3333.3,3333.3,4000,4000,4000,5000,5000,5000,5000,5000,5000,4000,4000,3333.3,3333.3,3636.4,3636.4,3076.9,3076.9,3076.9,3076.9,2857.1,2857.1,2857.1,2857.1,2857.1,2857.1,2857.1,2857.1,2857.1,2857.1,2857.1,2857.1,2857.1,2857.1,2857.1,2857.1,2857.1,2857.1,2857.1,2857.1,2857.1,2857.1,2857.1,2857.1,2857.1,2857.1,2857.1,2857.1,2857.1,2857.1,2857.1,2857.1,2857.1,2857.1,2857.1,2857.1,2857.1,2857.1,2857.1,2666.7,2500,2352.9,2222.2,2105.3,1904.8,1904.8,1818.2,1600,1333.3,1290.3,8000,-714.29,-714.29,-714.29,714.29,158.1,157.48,157.48,152.09,151.52,151.52,158.73,158.73,158.73,158.73,158.73,158.73,158.73,158.73,158.73,158.73,2857.1,2857.1,2857.1,2857.1,2857.1,2857.1,3333.3,3076.9,2857.1,2857.1,5000,5000,5000,5000,5000,5000,5000,5000,5000,5000,5000,5000,5000,5000,5000,5000,5000,5000,5000,5000,5000,5000,5000,5000,5000,5000,5000,5000,5000,5000,5000,5000,8000,8000,333.33,333.33,333.33,3333.3,2857.1,2857.1,2857.1,2857.1,2857.1,2857.1,2857.1,2857.1,2857.1,2857.1,2857.1,2857.1,2857.1,2857.1,2857.1,2857.1,2857.1,2857.1,2666.7,2500,2857.1,2857.1,2857.1,2857.1,2857.1,2857.1,2857.1,2857.1,2857.1,8000,8000,8000,8000,8000,8000,8000,8000,8000,8000,8000,8000,8000,8000,8000,6666.7,0,0,0,0,0,0,0
0,0,0,0,0,0,0,Inf,-199,-200,20000,13333,10000,8000,8000,8000,8000,8000,8000,8000,8000,8000,8000,8000,8000,8000,8000,8000,8000,8000,8000,8000,8000,8000,8000,8000,8000,8000,8000,8000,8000,8000,8000,8000,8000,8000,8000,8000,8000,8000,8000,8000,8000,8000,8000,8000,8000,8000,8000,8000,8000,8000,8000,8000,8000,8000,8000,8000,8000,8000,8000,8000,8000,8000,8000,8000,8000,8000,8000,8000,8000,8000,8000,8000,8000,8000,8000,8000,8000,8000,8000,8000,8000,8000,8000,8000,8000,8000,8000,8000,8000,8000,8000,8000,8000,8000,6666.7,6666.7,6666.7,6666.7,6666.7,6666.7,6666.7,701.75,701.75,701.75,701.75,701.75,4444.4,4000,4000,4000,4000,4000,4000,4000,4000,4000,4000,4000,4000,4000,4000,4000,4000,4000,4000,4000,4000,4000,4000,4000,4000,4000,4000,4000,4000,4000,4000,4000,4000,4000,4000,4000,4000,4000,4000,4000,4000,4000,4000,4000,4000,4000,3636.4,3636.4,4000,4000,4000,4000,4000,4000,4000,4000,4000,4000,4000,3636.4,3636.4,3333.3,3636.4,3636.4,3636.4,3636.4,3636.4,3076.9,3076.9,3076.9,3333.3,3333.3,2857.1,2857.1,2857.1,2857.1,4000,4000,4000,4000,5000,5000,5000,3333.3,5000,4000,4000,3333.3,4000,3636.4,3636.4,3333.3,3333.3,2857.1,2857.1,2857.1,2857.1,2857.1,2857.1,2857.1,2857.1,2857.1,2857.1,2857.1,2857.1,2857.1,2857.1,2857.1,2857.1,2857.1,2857.1,2857.1,2857.1,2857.1,2857.1,2857.1,2857.1,2857.1,2857.1,2857.1,2857.1,2857.1,2857.1,2857.1,2857.1,2857.1,2857.1,2857.1,2857.1,2857.1,2857.1,2857.1,2857.1,2857.1,2666.7,2500,2352.9,2222.2,2105.3,2352.9,1904.8,1818.2,1666.7,1428.6,1290.3,8000,8000,8000,8000,8000,8000,8000,6666.7,-481.93,-481.93,-481.93,-487.8,158.1,158.1,158.1,158.1,158.1,158.1,158.1,158.1,158.1,3076.9,2857.1,2857.1,2857.1,2857.1,3636.4,3636.4,3076.9,2857.1,5000,5000,5000,5000,5000,5000,5000,5000,5000,5000,5000,5000,5000,5000,5000,5000,5000,5000,5000,5000,5000,5000,5000,5000,5000,5000,5000,5000,5000,5000,5000,5000,5000,8000,8000,333.33,333.33,3333.3,3333.3,2857.1,2857.1,2857.1,2857.1,2857.1,2857.1,2857.1,2857.1,2857.1,2857.1,2857.1,2857.1,2857.1,2857.1,2857.1,2857.1,2857.1,2857.1,2666.7,2500,2500,2857.1,2857.1,2857.1,2857.1,2857.1,2857.1,2857.1,2857.1,8000,8000,8000,8000,8000,8000,8000,8000,8000,8000,8000,8000,8000,8000,8000,6666.7,0,0,0,0,0,0,0
0,0,0,0,0,0,0,Inf,-199,-202.02,-202.02,13333,10000,8000,8000,8000,8000,8000,8000,8000,8000,8000,8000,8000,8000,8000,8000,8000,8000,8000,8000,8000,8000,8000,8000,8000,8000,8000,8000,8000,8000,8000,8000,8000,8000,8000,8000,8000,8000,8000,8000,8000,8000,8000,8000,8000,8000,8000,8000,8000,8000,8000,8000,8000,8000,8000,8000,8000,8000,8000,8000,8000,8000,8000,8000,8000,8000,8000,8000,8000,8000,8000,8000,8000,8000,8000,8000,8000,8000,8000,8000,8000,8000,8000,8000,8000,8000,8000,8000,8000,8000,8000,8000,8000,8000,8000,6666.7,6666.7,6666.7,6666.7,6666.7,6666.7,6666.7,714.29,714.29,714.29,701.75,701.75,4000,4000,4000,4000,4000,4000,4000,4000,4000,4000,4000,4000,4000,4000,4000,4000,4000,4000,4000,4000,4000,4000,4000,4000,4000,4000,4000,4000,4000,4000,4000,4000,4000,4000,4000,4000,4000,4000,4000,4000,4000,4000,4000,4000,4000,4000,3636.4,3636.4,4000,4000,4000,4000,4000,4000,4000,4000,4000,4000,4000,3636.4,3636.4,3333.3,3636.4,3636.4,3636.4,3636.4,3076.9,3076.9,3076.9,3076.9,3076.9,2857.1,2857.1,2857.1,2857.1,2857.1,2857.1,4000,4000,4000,4000,4000,3333.3,3333.3,3333.3,3333.3,3333.3,3333.3,3333.3,3333.3,3333.3,3076.9,2857.1,2857.1,2857.1,2857.1,2857.1,2857.1,2857.1,2857.1,2857.1,2857.1,2857.1,2857.1,2857.1,2857.1,2857.1,2857.1,2857.1,2857.1,2857.1,2857.1,2857.1,2857.1,2857.1,2857.1,2857.1,2857.1,2857.1,2857.1,2857.1,2857.1,2857.1,2857.1,2857.1,2857.1,2857.1,2857.1,2857.1,2857.1,2857.1,2857.1,2857.1,2857.1,2666.7,2500,2352.9,2222.2,2352.9,2352.9,1904.8,1818.2,1739.1,1538.5,1290.3,8000,8000,8000,8000,8000,8000,8000,6666.7,5714.3,-481.93,-481.93,-487.8,-481.93,-481.93,158.1,158.1,158.1,158.1,158.1,158.1,158.1,3076.9,2857.1,2857.1,2857.1,2857.1,3636.4,3636.4,3076.9,2857.1,5000,5000,5000,5000,5000,5000,5000,5000,5000,5000,5000,5000,5000,5000,5000,5000,5000,5000,5000,5000,5000,5000,5000,5000,5000,5000,5000,5000,5000,5000,5000,5000,5000,8000,8000,4000,3636.4,3333.3,3076.9,2857.1,2857.1,2857.1,2857.1,2857.1,2857.1,2857.1,2857.1,2857.1,2666.7,2857.1,2857.1,2857.1,2857.1,2857.1,2857.1,2857.1,2857.1,2666.7,2500,2857.1,2857.1,2857.1,3076.9,3076.9,3076.9,2857.1,2857.1,2857.1,2857.1,8000,8000,8000,8000,8000,8000,8000,8000,8000,8000,8000,8000,8000,8000,6666.7,0,0,0,0,0,0,0
0,0,0,0,0,0,0,Inf,-199,-202.02,-203.05,-204.08,10000,8000,8000,8000,8000,8000,8000,8000,8000,8000,8000,8000,8000,8000,8000,8000,8000,8000,8000,8000,8000,8000,8000,8000,8000,8000,8000,8000,8000,8000,8000,8000,8000,8000,8000,8000,8000,8000,8000,8000,8000,8000,8000,8000,8000,8000,8000,8000,8000,8000,8000,8000,8000,8000,8000,8000,8000,8000,8000,8000,8000,8000,8000,8000,8000,8000,8000,8000,8000,8000,8000,8000,8000,8000,8000,8000,8000,8000,8000,8000,8000,8000,8000,8000,8000,8000,8000,8000,8000,8000,8000,6666.7,6666.7,6666.7,6666.7,6666.7,6666.7,6666.7,6666.7,6666.7,470.59,470.59,470.59,714.29,519.48,4000,4000,4000,4000,4000,4000,4000,4000,4000,4000,4000,4000,4000,4000,4000,4000,4000,4000,4000,4000,4000,4000,4000,4000,4000,4000,4000,4000,4000,4000,4000,4000,4000,4000,4000,4000,4000,4000,4000,4000,4000,4000,4000,4000,4000,4000,4000,4000,3636.4,3636.4,3636.4,4000,4000,4000,4000,4000,4000,4000,4000,4000,3636.4,3636.4,3333.3,3636.4,3636.4,3636.4,3076.9,3076.9,3076.9,3076.9,3076.9,3076.9,3076.9,2857.1,2857.1,2857.1,2857.1,2857.1,3333.3,4000,4000,4000,4000,3333.3,3333.3,3333.3,3333.3,3333.3,3333.3,3333.3,3333.3,3076.9,3333.3,2857.1,2857.1,2857.1,2857.1,2857.1,2857.1,2857.1,2857.1,2857.1,2857.1,2857.1,2857.1,2857.1,2857.1,2857.1,2857.1,2857.1,2857.1,2857.1,2857.1,2857.1,2857.1,2857.1,2857.1,2857.1,2857.1,2857.1,2857.1,2857.1,2857.1,2857.1,2857.1,2857.1,2857.1,2857.1,2857.1,2857.1,2857.1,2857.1,2857.1,2857.1,2857.1,2857.1,2857.1,2500,2500,2500,2352.9,2222.2,2352.9,1739.1,1666.7,1379.3,1052.6,8000,8000,8000,8000,8000,8000,6666.7,5714.3,-481.93,-481.93,-481.93,-481.93,-481.93,-481.93,-481.93,158.1,158.1,158.1,158.1,158.1,158.1,2857.1,2857.1,2857.1,2857.1,5000,5000,5000,5000,5000,5000,5000,5000,5000,5000,5000,5000,5000,5000,5000,5000,5000,5000,5000,5000,5000,5000,5000,5000,5000,5000,5000,5000,5000,5000,5000,5000,5000,5000,5000,5000,5000,8000,8000,8000,3636.4,3333.3,3076.9,2857.1,2857.1,2857.1,2857.1,2857.1,2857.1,2857.1,2857.1,2857.1,2666.7,2857.1,2857.1,2857.1,2857.1,2857.1,2857.1,2857.1,2857.1,2666.7,2500,2857.1,2857.1,2857.1,3076.9,3076.9,3076.9,2857.1,2857.1,2857.1,2857.1,289.86,289.86,8000,8000,8000,8000,8000,8000,8000,8000,8000,8000,8000,8000,6666.7,0,0,0,0,0,0,0
0,0,0,0,0,0,0,Inf,-201.01,-202.02,-204.08,-206.19,10000,8000,8000,8000,8000,8000,8000,8000,8000,8000,8000,8000,8000,8000,8000,8000,8000,8000,8000,8000,8000,8000,8000,8000,8000,8000,8000,8000,8000,8000,8000,8000,8000,8000,8000,8000,8000,8000,8000,8000,8000,8000,8000,8000,8000,8000,8000,8000,8000,8000,8000,8000,8000,8000,8000,8000,8000,8000,8000,8000,8000,8000,8000,8000,8000,8000,8000,8000,8000,8000,8000,8000,8000,8000,8000,8000,8000,8000,8000,8000,8000,8000,8000,8000,8000,8000,8000,8000,8000,6666.7,6666.7,6666.7,6666.7,6666.7,6666.7,6666.7,6666.7,6666.7,6666.7,6666.7,-172.41,-172.41,-172.41,-172.41,512.82,4000,4000,4000,4000,4000,4000,4000,4000,4000,4000,4000,4000,4000,4000,4000,4000,4000,4000,4000,4000,4000,4000,4000,4000,4000,4000,4000,4000,4000,4000,4000,4000,4000,4000,4000,4000,4000,4000,3636.4,4000,4000,4000,4000,3636.4,3636.4,3636.4,3636.4,3636.4,3636.4,3636.4,3636.4,4000,4000,4000,4000,4000,4000,4000,4000,4000,3636.4,3636.4,3333.3,3636.4,3636.4,3636.4,3636.4,3076.9,3076.9,3076.9,3076.9,3076.9,3076.9,3076.9,3076.9,3076.9,3076.9,3076.9,3333.3,3333.3,4000,4000,4000,3333.3,3333.3,2857.1,2857.1,2857.1,2857.1,2857.1,2857.1,2857.1,2857.1,2857.1,2857.1,2857.1,2857.1,2857.1,2857.1,2857.1,2857.1,2857.1,2857.1,2857.1,2857.1,2857.1,2857.1,2857.1,2857.1,2857.1,2857.1,2857.1,2857.1,2857.1,2857.1,2857.1,2857.1,2857.1,2857.1,2857.1,2857.1,2857.1,2857.1,2857.1,2857.1,2857.1,2857.1,2857.1,2857.1,2857.1,2857.1,2857.1,2857.1,2857.1,2857.1,2857.1,2857.1,2666.7,2500,2500,2352.9,2352.9,2352.9,1739.1,1666.7,2666.7,1818.2,8000,8000,8000,8000,8000,8000,6666.7,5714.3,5714.3,-481.93,-481.93,-481.93,-481.93,-481.93,-481.93,320,320,320,158.1,158.1,158.1,2857.1,2857.1,2857.1,2857.1,5000,5000,5000,5000,5000,5000,5000,5000,5000,5000,5000,5000,5000,5000,5000,5000,5000,5000,5000,5000,5000,5000,5000,5000,5000,5000,5000,5000,5000,5000,5000,5000,5000,5000,5000,5000,5000,8000,8000,8000,3636.4,3333.3,3076.9,2857.1,2666.7,2857.1,2857.1,2857.1,2666.7,2857.1,2857.1,2857.1,2666.7,2857.1,2857.1,2857.1,2857.1,2857.1,2857.1,2857.1,2857.1,2666.7,2500,2857.1,2857.1,2857.1,3076.9,3076.9,3076.9,2857.1,2857.1,2857.1,2857.1,289.86,289.86,8000,8000,8000,8000,8000,8000,8000,8000,8000,8000,6666.7,6666.7,6666.7,0,0,0,0,0,0,0
0,0,0,0,0,0,0,Inf,-201.01,-6666.7,-6666.7,-206.19,10000,8000,8000,8000,8000,8000,8000,8000,8000,8000,8000,8000,8000,8000,8000,8000,8000,8000,8000,8000,8000,8000,8000,8000,8000,8000,8000,8000,8000,8000,8000,8000,8000,8000,8000,8000,8000,8000,8000,8000,8000,8000,8000,8000,8000,8000,8000,8000,8000,8000,8000,8000,8000,8000,8000,8000,8000,8000,8000,8000,8000,8000,8000,8000,8000,8000,8000,8000,8000,8000,8000,8000,8000,8000,8000,8000,8000,8000,8000,8000,8000,8000,6666.7,8000,8000,6666.7,6666.7,6666.7,6666.7,6666.7,6666.7,6666.7,6666.7,6666.7,6666.7,6666.7,6666.7,6666.7,6666.7,6666.7,-172.41,430.11,430.11,-172.41,4000,4000,4000,4000,4000,4000,4000,4000,4000,4000,4000,4000,4000,4000,4000,4000,4000,4000,4000,4000,4000,4000,4000,4000,4000,4000,4000,4000,4000,4000,4000,4000,4000,4000,4000,4000,4000,4000,4000,4000,4000,4000,4000,4000,4000,4000,4000,3636.4,3636.4,3636.4,3636.4,3636.4,4000,4000,4000,4000,4000,4000,4000,4000,4000,3636.4,3636.4,3333.3,3636.4,3636.4,3636.4,3333.3,3333.3,3076.9,3076.9,3076.9,3076.9,3076.9,3076.9,3076.9,3076.9,3076.9,3076.9,3333.3,3636.4,3636.4,4000,4000,3333.3,3333.3,2857.1,2857.1,2857.1,2857.1,2857.1,2857.1,2857.1,2857.1,2857.1,2857.1,2857.1,2857.1,2857.1,2857.1,2857.1,2857.1,2857.1,2857.1,2857.1,2857.1,2857.1,2857.1,2857.1,2857.1,2857.1,2857.1,2857.1,2857.1,2857.1,2857.1,2857.1,2857.1,2857.1,2857.1,2857.1,2857.1,2857.1,2857.1,2857.1,2857.1,2857.1,2857.1,2857.1,2857.1,2857.1,2857.1,2857.1,2857.1,2857.1,2857.1,2857.1,2857.1,2666.7,2500,2500,2352.9,2500,2352.9,1739.1,2857.1,2666.7,1818.2,8000,8000,8000,8000,8000,8000,6666.7,6666.7,5714.3,-481.93,-481.93,-481.93,-481.93,-481.93,-481.93,-481.93,158.1,158.1,158.1,158.1,158.1,2857.1,2857.1,2857.1,-634.92,5000,5000,5000,5000,5000,5000,5000,5000,5000,5000,5000,5000,5000,5000,5000,5000,5000,5000,5000,5000,5000,5000,5000,5000,5000,5000,5000,5000,5000,5000,5000,5000,5000,5000,5000,5000,5000,8000,8000,4000,3636.4,3333.3,3076.9,2857.1,2666.7,2857.1,2857.1,2857.1,2857.1,2857.1,2857.1,2857.1,2666.7,2857.1,2857.1,2857.1,2857.1,2857.1,2857.1,2857.1,2857.1,2857.1,2666.7,2857.1,2857.1,2857.1,3076.9,3076.9,3076.9,2857.1,2857.1,2857.1,2857.1,289.86,289.86,8000,8000,8000,8000,8000,8000,8000,8000,8000,8000,6666.7,6666.7,6666.7,0,0,0,0,0,0,0
